ply
format ascii 1.0
comment VCGLIB generated
element vertex 1770
property float x
property float y
property float z
element face 0
property list uchar int vertex_indices
end_header
2.61054 2.63017 -1.2462 
-0.187429 -3.05699 -1.90779 
-2.60147 -0.713516 -2.62827 
-3.54959 -1.11074 0.580933 
0.215846 3.64466 -0.956924 
-0.193593 3.1656 1.73206 
0.925205 -1.78409 3.66426 
1.80949 2.54205 -2.74097 
-1.6068 -1.78628 -3.24301 
2.62183 1.41716 -2.61569 
-2.84122 2.2569 -2.24363 
-2.32087 -3.09885 0.427669 
2.92686 2.11834 1.6493 
-2.06096 -1.19941 2.96232 
-1.87697 2.35919 -3.03685 
3.01275 1.97937 0.428317 
-2.33948 2.85785 -2.23001 
-0.885637 3.19478 -1.68484 
1.01336 -1.56189 3.60978 
-2.23455 -3.23853 -1.07531 
-1.40988 0.632572 -3.36472 
-2.45591 -0.625383 2.71823 
-1.56293 -0.544066 3.27012 
-2.73819 -1.53725 -2.54377 
2.86375 2.22046 1.68053 
0.309435 3.66215 0.928623 
-3.06391 1.89659 1.71412 
2.84829 1.80208 2.47573 
-2.46888 -0.358231 -2.71022 
-2.12892 2.99994 -2.00009 
1.3176 0.325876 3.42175 
2.34739 -3.05595 -1.54355 
-1.77336 -2.61996 -2.61492 
-0.551654 -2.73408 2.43027 
-1.92299 3.52297 -1.15381 
0.324576 2.91524 -2.13715 
-1.45533 1.77777 -3.33663 
-1.43592 -1.72568 3.34862 
2.28272 -2.62208 -2.61149 
2.60586 -2.63774 -2.433 
-0.277829 2.58294 -2.67482 
-2.68525 1.20645 -2.57649 
3.19302 0.240021 2.26267 
-0.966668 -0.33899 3.63863 
-2.04533 3.5447 0.255791 
2.38251 2.99912 1.07538 
-3.97504 0.422358 -0.800221 
2.8419 2.25582 -0.76332 
3.41461 1.32914 -0.689552 
3.67129 0.913837 0.639469 
-1.97698 -3.65527 -0.404193 
-3.31802 -1.48544 0.623356 
-1.43179 0.163609 -3.35117 
3.65566 -0.939128 -0.60763 
-0.967328 1.03944 -3.63823 
-2.94246 2.0931 1.48675 
-2.53465 -2.75295 -0.620995 
1.07371 -0.701051 3.57248 
0.656894 -3.08701 -1.85921 
0.805214 -1.72936 -3.73842 
-2.6305 -0.871247 -2.61033 
3.22079 -1.64275 1.39529 
3.50239 -1.18712 -1.7959 
-0.593196 2.36635 -3.02526 
-3.21118 1.6583 -2.24391 
0.148844 2.03391 3.56316 
-2.62229 -1.36538 2.6154 
-1.4202 1.82066 3.35833 
-0.889912 -4.12763 -0.17546 
0.143668 -0.666735 -4.14728 
-3.69808 0.870479 0.974549 
0.878364 0.0628058 3.69321 
0.538427 0.0819306 -3.9033 
-2.3439 -3.0616 1.45027 
0.324692 -1.911 3.76204 
1.71908 -3.10676 -1.82725 
1.92184 -1.22303 -3.04831 
-3.66641 0.259572 1.9701 
4.16549 0.0667628 1.66166 
0.0503643 3.10406 -1.83162 
-2.54794 2.73145 0.174766 
-1.70484 0.302863 -3.18242 
-0.10127 -1.98166 -3.64771 
0.17552 0.626075 -4.12759 
0.355992 2.04353 3.5476 
2.8762 -2.20032 -1.80588 
3.27275 -1.55868 -1.69835 
1.02837 -2.49329 -2.81988 
1.47118 2.84548 2.25003 
-2.04876 3.53914 0.368051 
-2.91691 -2.13444 0.336761 
1.0503 -2.21541 -3.2695 
2.8357 -2.26584 -2.46029 
-0.397881 1.98177 3.64753 
-2.61797 -2.61813 -1.34762 
-1.10172 -0.298665 -3.55517 
-1.2489 3.89489 0.552043 
4.12706 0.176385 0.930793 
2.86013 -2.22632 -2.08024 
-0.0343882 -0.20483 -4.21482 
-0.392124 -0.506776 3.99372 
3.54533 1.11763 -0.854071 
-0.988827 2.15456 -3.36795 
-2.81957 -0.693299 2.49348 
0.581037 1.95915 -3.68413 
-2.71276 2.25113 2.55949 
0.591724 0.0716312 3.87036 
0.273202 3.42009 -1.32028 
0.468835 -3.94336 -0.473617 
2.08084 3.00098 1.99842 
2.47589 2.84803 1.09681 
1.80123 -2.00299 3.12285 
3.37925 -1.38636 -1.89358 
2.83621 0.389451 -2.48319 
2.44206 2.90277 -1.54565 
-2.1448 -3.38374 -0.433192 
-3.25783 -1.01891 2.22262 
-1.51099 -2.01302 3.30222 
2.6223 -2.61113 0.186725 
-2.47573 0.748121 2.70599 
0.261171 -1.77289 -3.9855 
1.39259 -3.95836 0.449346 
-1.96602 -3.67302 -0.275541 
-3.19162 -1.68995 -1.77424 
-0.8701 -3.28605 -1.53716 
2.53679 2.74949 1.77358 
0.897561 -2.14133 3.38936 
0.149508 4.04123 0.315254 
-0.542687 0.544939 -3.90067 
2.50123 1.88656 2.69023 
-0.976718 2.76042 -2.38765 
0.54747 -1.21689 -3.89771 
-3.1634 0.471739 2.28098 
-0.646245 1.55995 -3.83667 
3.16434 -1.73409 2.20527 
-2.22681 -2.49377 -2.81909 
-2.53675 -1.29001 2.66827 
-3.32681 1.47121 1.09173 
-2.08524 -2.46012 -2.87354 
3.31641 0.357133 2.18642 
2.48216 2.15555 2.70201 
3.28446 0.866408 -2.20616 
-2.91279 2.1411 1.89558 
3.22142 -0.470558 2.24512 
3.06883 1.88863 -1.80606 
3.17766 -1.71253 -1.67519 
0.0320236 -3.08715 -1.85898 
-0.176892 -0.754018 4.12674 
-0.778174 2.60712 2.6357 
-0.952109 2.40429 -2.96387 
2.21642 -3.19119 1.69065 
-0.417305 3.84589 -0.631325 
1.8643 0.628644 -3.08387 
-0.613967 -2.03717 -3.55789 
-2.0224 -2.07763 2.98616 
3.14676 -1.33264 -2.29126 
-1.18758 -0.167506 -3.50211 
-3.22475 1.63634 -0.114582 
-0.5246 3.94869 -0.464984 
-0.39374 -2.95899 -2.06636 
-3.32695 1.47098 1.46714 
0.413838 -1.94088 3.71369 
-0.464132 2.54601 -2.73458 
-1.08916 -2.95186 -2.0779 
-2.45214 -2.51427 -2.72056 
3.52186 -0.647339 2.05944 
-2.69662 -2.49088 -0.193484 
-1.24616 2.5768 2.68476 
1.39198 -1.4298 3.37578 
2.60862 -2.63326 -0.194849 
-0.290339 -0.702906 -4.05663 
-3.80482 -0.697776 0.656513 
1.43343 2.14138 3.35016 
1.18714 2.56311 2.7069 
2.86625 1.30816 -2.46463 
-0.596475 4.19097 0.0729756 
-1.97872 3.57503 -1.06958 
2.38808 2.9901 -0.803781 
0.515098 -3.28301 -1.54208 
-2.87498 2.20228 -1.7602 
1.88067 1.7921 3.07375 
-2.97971 2.03284 1.17691 
1.90693 1.22478 3.05752 
3.62766 0.143049 1.99405 
3.29352 -0.994706 2.20056 
1.55252 1.39382 -3.27656 
-3.57093 -0.444347 2.02911 
1.89598 1.0612 -3.06429 
2.53787 2.74775 2.26343 
-1.81999 -3.90929 -0.283268 
1.48264 -1.22591 -3.31975 
2.45787 2.85804 -2.22969 
-3.83283 0.652457 -1.37248 
3.01822 -1.97052 -2.17634 
-2.6591 2.55158 1.59578 
3.04443 0.59679 2.35451 
2.84142 2.25658 0.177977 
0.227564 -0.248612 4.09543 
-1.91136 -1.29908 3.05478 
3.55578 0.618304 -2.03848 
-1.49822 3.65648 -0.937796 
2.76258 -2.38416 -1.57502 
1.22703 0.948458 -3.47772 
3.08305 1.86563 0.757035 
2.7462 2.07951 -2.53882 
-1.30616 0.308139 3.42882 
-1.58403 3.62587 -0.987322 
-0.199617 -3.37007 -1.40122 
0.368291 3.12446 1.79862 
2.83146 2.11147 -2.48613 
0.208574 3.77011 -0.753938 
-0.501572 -3.88556 0.56714 
-3.53203 -1.13916 1.44373 
2.98016 2.03211 -2.28472 
2.01606 -3.59205 -0.461157 
-1.56742 -3.40417 -1.34603 
-2.91138 -2.14339 -1.96793 
-2.25577 0.972498 2.84193 
-3.22682 -1.633 1.05869 
0.979851 3.59378 -1.03924 
-3.91169 0.524851 0.539039 
-2.78221 0.200595 2.51657 
2.90553 -2.15286 -1.53893 
0.275312 4.22401 0.0195176 
2.61271 -2.62665 -1.03984 
-0.776361 2.1766 -3.33229 
-2.40991 2.92796 -2.11656 
-0.459181 0.487168 -3.95228 
2.94319 2.09193 2.07825 
1.96579 -3.67338 0.881338 
-0.874423 -2.3994 -2.97179 
-2.45346 -1.25075 2.71975 
-1.16391 -1.01204 -3.51674 
2.25601 -1.86122 2.84178 
0.977643 -2.36079 -3.03427 
-2.48378 -2.83525 -1.73311 
-3.84436 0.633801 0.574541 
-2.14236 3.38769 -0.879117 
2.83815 -2.26188 -1.24483 
-1.06443 3.68597 -0.890077 
0.822066 -2.33472 -3.07645 
0.207051 -2.19731 3.29878 
1.39449 2.88193 2.19105 
-0.183073 -4.11771 -0.191504 
2.6142 2.62424 2.21454 
-1.24589 -2.84996 2.24278 
-1.23838 0.498994 3.47071 
3.55796 -1.09721 1.36336 
0.535931 3.41762 1.32428 
3.15175 -1.75446 1.21406 
1.70724 -3.1648 -1.73335 
0.215734 1.12401 4.10274 
-2.26213 -0.416739 2.83799 
1.88352 3.8065 0.0421815 
-0.632358 -2.68385 2.51155 
3.11351 -1.81633 -0.898908 
0.0256729 2.04484 3.54547 
-2.46829 2.27845 -2.71058 
1.52037 3.21679 -1.64923 
1.549 1.50108 -3.27873 
3.33391 -1.45973 0.641049 
-0.387192 2.57918 -2.68091 
-1.31991 -1.07826 3.42032 
3.0338 -1.55428 -2.36108 
0.398834 3.94358 -0.473261 
-1.09811 -1.53319 3.5574 
1.39895 -3.19576 1.68325 
0.171904 3.66284 0.92751 
3.66087 -0.93069 0.869192 
1.79744 -3.60348 1.02354 
-2.42803 2.92546 0.67514 
-1.89075 -3.63008 0.980512 
-1.45653 -3.43316 -1.29913 
-1.00909 -3.66534 -0.923461 
3.20146 1.00925 -2.25746 
2.62184 -2.61188 1.46125 
0.49426 3.14746 -1.76141 
-3.43286 1.29961 -1.66089 
-1.41339 1.62548 3.36254 
-0.426318 -0.937914 3.97259 
0.695958 4.02083 -0.34826 
-0.0977718 2.48138 2.83914 
-3.04002 -1.93525 0.224483 
-3.24546 -1.60284 1.94899 
4.02239 -0.345735 0.39159 
1.2479 -3.41527 -1.32808 
0.776136 -2.50291 -2.80431 
2.62271 -2.61048 -1.14672 
1.68307 3.35625 1.42358 
0.711215 -1.0064 -3.79651 
2.81273 0.522854 -2.49771 
0.942355 0.381627 -3.65366 
3.1921 -1.68918 1.6744 
-4.03202 -0.330149 -0.511278 
2.48247 2.83738 -1.36193 
-2.8745 -2.20306 1.42415 
-2.53931 0.295575 2.66669 
-1.63677 4.04039 -0.316607 
-3.54119 -1.12434 -2.02539 
1.55058 -3.88076 -0.574896 
2.61145 2.62869 1.4834 
-1.24911 1.48107 3.46408 
-2.10298 -3.45141 -0.771045 
1.12616 3.36398 -1.41107 
1.84686 -0.28869 -3.09464 
-1.90948 3.7627 -0.765924 
-2.10882 -1.10234 2.93274 
2.04742 1.69705 -2.97069 
1.80897 -3.86782 0.595839 
1.45724 2.28664 -3.15423 
3.10908 -1.82351 1.29187 
0.0320234 1.64018 -4.20024 
4.15446 0.132051 1.35893 
2.77624 -2.36206 1.30911 
-2.75629 2.39432 0.584471 
0.506233 -3.87974 -0.576549 
1.59986 3.30853 1.50078 
-2.39334 -2.98159 1.83094 
0.543978 -2.43124 -2.92027 
-1.92471 -1.86364 -3.04653 
-2.61766 -2.61863 2.5109 
-1.12409 0.940924 -3.54134 
-2.05597 2.67407 2.52736 
-3.12341 -1.80032 -2.09845 
1.32359 2.37929 3.00433 
3.61224 0.369272 -2.00358 
3.51524 1.16632 -0.609666 
-3.23382 1.62168 -0.869954 
0.728745 3.9038 -0.537626 
-0.401462 -2.34054 3.06703 
1.87141 -2.83695 2.26382 
-0.828428 1.94252 -3.71103 
-3.19457 -1.68518 -0.69161 
4.2359 0.000277098 -1.39837 
2.00143 -3.61573 -0.687003 
-0.946782 0.515313 3.65092 
-3.47208 -1.23616 0.599399 
0.560523 -3.14102 1.77182 
3.88766 -0.563734 0.0357373 
-4.23342 0.00428586 1.45052 
2.2568 2.14092 -2.84129 
-2.48607 2.83156 -1.26626 
-0.183375 -0.0973843 4.12274 
-3.12356 1.80008 0.888538 
-0.224926 -3.31178 1.49552 
-2.06866 2.95266 -2.0766 
0.932083 -0.885758 -3.66001 
0.904527 2.468 2.8608 
0.759141 -3.49807 -1.19411 
3.54654 -1.11568 0.0413706 
-2.51326 -2.7845 -2.34869 
-3.36173 -1.41472 -0.651183 
-3.42802 -1.30746 0.195403 
-0.132423 -3.88468 -0.568557 
0.726098 2.35145 -3.04938 
-3.53582 1.13303 0.525697 
-2.53307 1.58241 2.67055 
1.24182 -4.15236 -0.135444 
2.33217 3.08057 -0.331465 
1.44281 2.79389 2.33349 
-3.7743 0.747155 0.893133 
3.30999 0.147877 2.19038 
-3.14499 -0.664712 2.29236 
-1.50048 -2.96097 -2.06316 
2.61255 -2.62691 -2.58458 
3.76536 -0.243133 -1.90895 
2.78105 -2.35426 -1.02052 
0.972503 -0.57193 -3.63503 
-2.14622 3.28019 -1.54664 
1.16224 -3.36936 1.40236 
1.44216 -1.70111 -3.34476 
3.06293 1.89817 -1.91736 
0.712312 2.12226 -3.42021 
-0.0849756 -3.05854 -1.90529 
-0.520084 -2.266 -3.18764 
-3.64341 0.958934 -0.549779 
3.9983 0.384714 -0.744315 
-2.63734 -2.58679 -2.47507 
-2.70949 2.47005 -0.764637 
-1.60373 -3.92733 -0.499545 
-1.63869 -4.00496 0.373948 
1.04146 -1.08155 -3.59241 
1.0866 -2.61965 2.61542 
3.39734 -1.35708 -0.576731 
0.90212 2.61109 2.62927 
1.31002 -1.82926 3.42643 
1.95359 2.68405 -2.51122 
-3.55027 -0.274445 -2.04188 
-4.20289 0.0536816 1.14135 
-0.998753 2.83412 2.2684 
-1.72198 -2.47969 -2.84188 
-1.52142 0.733238 3.29578 
0.953995 3.9104 -0.526939 
-3.87005 0.592226 -1.09641 
-0.848743 -3.50814 -1.17781 
-1.84445 -0.396643 3.09614 
-1.28552 -3.36276 -1.41304 
-2.16633 0.192953 2.8972 
1.67779 3.49304 1.20224 
1.97996 2.61252 2.62696 
-1.14358 -1.16708 -3.52929 
3.25905 -1.58084 1.62027 
3.33959 -1.45052 -1.68438 
-2.75457 -2.39711 -0.17624 
-3.80082 0.704252 1.49168 
2.07974 -0.209334 2.95072 
-1.98426 -2.476 -2.84785 
-2.96899 -0.980603 2.40113 
1.65037 -3.38229 -1.38144 
3.21585 0.344748 2.24856 
-4.20993 -0.0422856 -1.44792 
-2.68014 2.51755 1.28934 
-1.89098 2.34848 3.05418 
0.085471 3.4876 -1.21105 
0.231144 -0.0460378 -4.09321 
-0.578335 1.36585 -3.87864 
-1.92239 3.19087 1.69116 
-0.178884 2.43371 2.91627 
3.63546 -0.971804 -0.979118 
-3.12354 -1.8001 -0.223649 
-0.723464 -2.57662 -2.68505 
-0.394412 2.26907 -3.18267 
3.06739 1.89095 0.858367 
-2.13173 2.93134 2.11109 
3.40879 -1.33856 -0.965093 
3.83949 -0.641681 -0.368432 
-0.53516 -3.17293 -1.7202 
2.15502 -3.3672 0.551621 
-2.29013 -3.1486 1.13603 
-0.549309 -3.12294 1.80108 
-3.02179 1.96474 1.6243 
1.21572 3.98766 0.401926 
1.82256 3.90513 0.088094 
-2.06329 -0.664119 -2.96089 
0.39377 -2.97048 2.04777 
-2.73218 -2.43335 -0.324622 
-2.02996 -3.56956 0.290712 
1.33283 -1.51584 -3.41233 
-0.539178 -3.55187 1.10705 
1.08711 -3.95158 0.460305 
3.41543 -0.168053 -2.12522 
3.3964 -1.35861 -1.50534 
1.11021 3.68831 -0.886294 
-4.16055 -0.122194 0.997389 
-2.40708 0.454019 -2.74841 
2.09522 -3.46396 -1.22508 
-3.85656 0.614055 -0.380399 
-3.24668 -1.60087 1.55847 
3.01191 1.57457 2.37461 
1.83674 -2.12079 3.1009 
-1.84879 -0.180583 -3.09345 
2.49409 2.81858 0.760558 
3.54076 1.12503 -0.712831 
-0.732747 -0.446183 -3.78321 
-2.37942 2.80853 -2.3098 
-1.28789 -3.75463 -0.778989 
-3.19464 -1.68507 -0.0650715 
-0.612718 1.68752 -3.85739 
0.711888 -2.26543 3.18857 
-0.620261 3.46268 -1.25137 
0.27599 -2.62172 2.61207 
0.896954 -3.27641 1.55276 
1.96845 3.12148 -1.80344 
2.77726 -2.36039 -1.27157 
-2.73613 2.42695 -0.237211 
0.722042 3.93357 0.489445 
3.91443 -0.365528 -1.81682 
-2.55167 -2.72541 1.8348 
-1.3493 1.40661 3.40215 
-2.02111 1.34885 2.98696 
0.669324 0.80792 3.8224 
3.41649 -1.32611 -0.24954 
-1.46631 -3.44007 1.28794 
0.856468 2.0326 3.56528 
2.42604 2.92869 2.03707 
-3.36315 1.41241 1.3131 
-2.22702 0.619002 2.8597 
-0.185295 2.49073 -2.82402 
-2.50261 0.78772 -2.68937 
1.1168 1.73932 -3.54585 
1.02695 2.76525 2.37984 
-1.9269 -0.2348 -3.04518 
1.10501 -3.89884 0.545651 
1.14797 3.01822 -1.97051 
3.68789 0.886971 -0.719962 
-1.21141 3.8341 -0.650403 
2.92064 -2.12841 1.58445 
-3.04826 1.92191 -1.39533 
2.15076 -3.06321 -1.89773 
-3.0621 1.89952 -1.26133 
-2.20562 3.05644 -1.90868 
0.70093 -1.95244 3.69499 
0.230888 -2.98393 -2.02601 
-1.9005 2.04893 3.06149 
-2.40315 -1.24849 -2.75084 
0.0634665 2.13245 3.40372 
-2.61448 -2.62379 -0.136837 
1.64811 -2.49415 2.81848 
-2.16584 1.89671 2.89751 
-0.139387 -1.08955 -4.14992 
3.51891 0.230238 -2.06126 
3.40023 -0.411102 -2.13461 
1.65187 -1.43212 -3.21516 
-0.853263 2.50052 2.80818 
3.1598 -1.74143 0.885818 
-1.68803 1.14893 3.19281 
-1.78556 -3.24062 -1.61068 
-3.03458 0.436809 2.36059 
2.75308 -2.39952 -0.932915 
2.98127 2.03031 -1.47733 
-0.984058 -3.26544 -1.5705 
-0.735103 2.52849 2.76293 
1.58923 3.07402 1.88024 
-3.78579 -0.47192 -1.89632 
-1.11246 -0.898871 3.54853 
-1.21712 2.21208 -3.27488 
2.58663 -1.58731 -2.63744 
-2.034 -3.56303 0.647523 
1.16975 -0.11606 -3.51312 
0.996316 0.00535819 3.62031 
-2.29409 2.59533 -2.65477 
-1.98515 -3.64207 0.233327 
2.69363 -1.05979 -2.57131 
-2.00675 -3.49913 -1.19239 
-1.75633 1.69954 -3.1506 
1.41289 -4.21522 0.0337267 
3.15835 -1.74378 -0.953348 
3.68735 -0.887851 0.573129 
-3.42009 1.32029 -1.19582 
1.78702 -0.243823 3.13163 
2.41295 1.32404 -2.74478 
-0.174987 -4.04109 0.315488 
1.08854 1.85087 -3.56331 
-2.96241 2.06083 -1.59681 
-3.83785 0.644338 0.201224 
1.21237 2.23264 3.24162 
-3.3263 1.28747 -2.1803 
-3.95759 0.450586 -0.905605 
0.936956 0.281441 -3.657 
-3.57581 -0.179063 -2.02609 
1.72721 -1.47974 -3.16859 
-1.50689 -1.33445 -3.30476 
2.60692 0.731019 -2.6249 
1.01838 -4.01097 -0.364214 
3.99826 0.38478 0.460754 
2.43256 1.77994 -2.73266 
-1.31746 -2.08779 3.42183 
-1.43841 -4.16847 -0.109377 
-1.78683 1.03994 -3.13175 
-2.98757 -1.81284 -2.38965 
-0.216344 -3.19308 -1.68759 
-1.79788 2.29852 3.12492 
-3.67717 -0.892536 1.96345 
-4.0129 -0.341817 -1.75596 
3.12241 1.80193 1.65749 
3.21948 1.64488 -0.369675 
1.72089 -1.32343 3.1725 
2.70229 0.181824 -2.56596 
0.953341 -0.423755 3.64687 
-3.54705 1.11485 0.914328 
1.73066 -2.39724 2.97529 
-2.43089 2.74371 2.41469 
3.42237 1.31659 -1.55261 
-1.713 2.74687 2.40957 
-1.68944 -3.18318 -1.70361 
-1.9726 -3.07096 -1.88519 
-2.59829 2.64999 1.88882 
2.16971 2.54937 2.72913 
2.04367 2.54632 2.73407 
2.85186 2.23969 2.42856 
-1.27424 -0.712608 -3.44855 
-0.927741 -3.194 -1.68611 
-2.77027 -2.37172 -2.30739 
-3.05515 -0.686447 2.34788 
3.5528 1.10554 1.18789 
0.189314 1.45463 4.11907 
3.70983 0.851475 0.369579 
-1.54008 2.30767 3.12022 
3.40957 -0.423597 2.12884 
2.44638 1.15566 -2.72412 
-1.07314 -2.77786 -2.35942 
-2.93121 -2.1113 0.669006 
-3.50965 -1.17536 1.71974 
2.90297 2.157 -1.92004 
2.64589 -2.57297 -1.55296 
-3.3351 -1.4578 -1.09768 
-0.205468 1.59879 4.10908 
-2.03309 -2.8959 2.16844 
-1.31717 1.33184 -3.42201 
-1.81165 3.92279 -0.259424 
3.61149 -1.01059 -1.57916 
0.929078 -2.94307 -2.09211 
-1.38657 4.125 -0.179717 
1.79171 -0.390581 3.12873 
-0.938009 -2.61946 2.61572 
-2.98575 -2.02305 2.17166 
-0.649642 -3.1053 -1.82963 
0.0034959 -1.34887 -4.23391 
1.5415 -2.59529 2.65484 
-2.03829 2.76829 -2.37491 
-2.90466 -1.36389 -2.44089 
2.82849 0.184693 2.48797 
0.534213 -2.00706 -3.60662 
-0.320876 -3.46106 1.25399 
-1.25445 3.63437 0.973561 
-0.0843222 -2.2675 3.18521 
-3.22333 1.63865 -2.1295 
3.48676 -1.21241 0.329287 
1.0928 -1.62993 3.56068 
-0.720807 3.62874 -0.982674 
-1.45814 -2.95207 2.07755 
3.08483 1.86274 -2.01253 
1.78645 -2.84218 -2.25536 
-3.07324 0.513877 -2.3367 
-1.54314 -3.58432 1.05455 
1.97187 -0.715382 -3.01738 
-1.54875 -2.10256 3.27889 
4.03542 0.324655 -1.05922 
-0.334495 -0.165966 -4.02934 
-3.20471 1.66877 0.750252 
-2.93895 -2.09878 0.960827 
3.32732 -1.47038 0.172502 
2.6128 2.6265 -0.322983 
-2.61155 -2.62852 -0.0364596 
-3.44343 0.494435 2.10791 
-3.82882 0.658945 0.463102 
3.89138 -0.55772 -1.41828 
-2.47399 2.8511 0.888101 
2.49372 -2.81919 1.49217 
3.54636 -1.11598 -1.14797 
2.95202 -1.03152 2.41162 
-1.5774 -2.53214 -2.75701 
-3.22811 1.63091 -1.2561 
3.56405 0.371854 2.03336 
2.10682 -0.353398 -2.93398 
0.0398268 -2.44109 -2.90433 
3.99711 0.386637 1.60234 
2.98116 -2.03048 2.28389 
-1.92154 -2.3972 -2.97535 
-2.55395 2.72172 -1.23256 
-0.313211 2.39421 -2.9802 
2.26095 -1.70075 2.83872 
2.14284 3.38691 0.961152 
-1.35907 -2.58917 -2.66474 
3.4198 1.32074 -1.94732 
-2.12542 1.08189 -2.92249 
3.64315 0.959361 0.736028 
2.83974 -2.25931 -1.4596 
-2.47416 1.31014 -2.70696 
-1.10233 1.15587 -3.55479 
2.29625 -3.13869 -0.840804 
3.14691 -0.466743 -2.29117 
-1.24995 -3.90941 -0.528538 
-3.26915 -1.53375 -2.21562 
1.5505 3.33751 -1.4539 
3.36663 1.40677 -0.473465 
3.48136 1.22114 -1.79354 
-0.0103877 -3.51142 -1.1725 
-1.90939 1.11708 3.056 
0.436663 -1.19191 -3.9662 
-0.953834 -0.868175 -3.64657 
0.9363 -3.54202 -1.123 
2.34041 3.06724 1.46987 
-1.22357 -0.418518 3.47986 
-0.194649 1.41446 -4.11577 
-2.68364 2.51188 2.18734 
-0.799548 1.85825 3.74192 
-2.97205 -2.04523 -0.468654 
-0.179854 1.83978 3.87728 
2.7023 2.48169 -1.23872 
1.8205 3.88868 -0.562087 
2.9887 2.01829 1.54426 
3.75817 0.422882 -1.91339 
-0.518645 1.7284 3.91553 
-3.57993 -1.06166 -0.45488 
-2.61417 -0.324406 -2.62042 
2.5352 -2.75207 1.38463 
-0.00399402 1.82849 3.89554 
3.01044 1.37315 -2.37552 
-2.59702 2.65204 0.114095 
1.43826 -3.64553 0.955504 
-1.21003 3.19111 -1.69078 
1.46199 2.62921 -2.59994 
0.81153 1.22181 3.73452 
2.00986 -2.98599 2.02267 
-1.95669 2.97425 -2.04167 
0.433957 3.89324 -0.55471 
-1.56037 0.427918 3.27171 
-1.08335 0.147561 3.56652 
-1.58984 -1.08335 3.2535 
2.51487 -0.595066 -2.68179 
-1.7303 2.22196 3.16669 
-2.61662 2.62032 0.715721 
-1.08657 0.90379 3.56453 
0.719054 -3.89429 0.553016 
-0.885894 -2.56401 2.70545 
-2.90779 -2.1492 -0.726428 
3.65878 0.934064 -0.203522 
-3.16831 1.72767 -2.13374 
2.33352 1.65274 2.79387 
0.296342 -2.27965 -3.16556 
1.49879 -0.423375 -3.30977 
4.12193 0.184681 1.12553 
-1.73607 0.410533 -3.16312 
1.3049 -2.131 3.40607 
-1.90866 -3.61742 -1.001 
3.38266 1.38084 -1.47317 
-3.13518 1.61369 -2.29842 
-1.20639 -4.06433 0.277877 
-0.0513861 1.68707 4.12437 
1.26604 -2.68671 2.50692 
-3.03867 1.90541 2.35807 
3.63218 0.97711 0.0595837 
-3.72435 0.827979 -0.494892 
-3.63493 0.972659 0.293736 
-3.92407 0.504827 -1.12823 
-1.28439 -2.0563 -3.44227 
0.780241 0.0504972 -3.75385 
1.87108 2.9907 -2.01505 
1.77069 3.30538 1.50589 
-1.37183 4.19076 0.0733135 
3.00252 -1.9071 -2.38041 
2.23783 -3.23322 -1.0495 
-2.68584 -2.02081 2.57613 
-2.69772 2.4891 2.49268 
2.80067 -2.32253 1.56496 
2.23425 0.159472 -2.85523 
-1.13654 3.09921 1.83948 
-2.63736 2.02901 -2.60609 
-1.73712 -2.16708 3.16247 
3.92236 -0.507587 -1.74067 
1.77126 2.1167 3.14137 
-1.01643 2.65471 -2.55869 
-1.80139 2.71174 2.46642 
-0.0623634 -1.77382 3.984 
-1.97668 2.72726 2.4413 
-0.81295 0.190087 -3.73364 
-3.53851 -1.12867 1.12698 
2.14168 -1.33356 -2.91243 
0.737092 -2.37424 -3.01249 
2.64783 -2.56982 -0.733774 
1.32905 -3.90084 0.542411 
-0.816791 2.66302 2.54524 
1.50606 -3.70384 0.861164 
-1.49006 2.69478 -2.49386 
2.85031 2.2422 -1.86468 
0.856389 1.68273 3.70679 
-3.80674 -0.694676 1.0238 
2.13907 2.91758 -2.13335 
0.0260778 -3.19506 1.68439 
2.04055 -3.55243 0.61049 
-1.24894 -2.4918 2.82228 
0.114656 -3.90388 0.537498 
-3.10953 0.407997 -2.31428 
1.96998 -1.17917 3.01856 
2.44469 1.10194 2.72517 
-0.258088 2.75772 -2.39202 
-2.04314 2.48199 -2.83815 
2.70144 1.20137 2.56649 
0.396944 1.47954 3.99074 
-2.68107 2.51604 0.368371 
2.1433 -3.08943 1.8553 
0.778387 0.447698 3.755 
2.2924 -3.14493 -1.492 
2.64483 2.57467 0.3165 
0.980031 1.56625 -3.63038 
1.28981 -1.89451 -3.43892 
1.6828 -1.16612 3.19604 
2.8876 0.709282 2.45144 
1.13109 -3.41897 -1.3221 
-1.00182 3.91657 0.516953 
0.587188 0.78445 -3.87317 
-2.47355 -2.85182 1.50143 
-2.21591 0.363956 2.86656 
1.30762 2.37156 -3.01684 
1.09051 -3.19458 -1.68517 
-2.76545 0.633458 2.52693 
-2.26289 3.19266 -0.816752 
-2.72306 2.30197 -2.55312 
-0.306799 -2.65694 -2.55509 
-0.176368 2.27212 3.17773 
-2.16298 1.83794 -2.89928 
-2.48588 -2.58351 2.6739 
2.31865 0.871227 2.80307 
3.98318 -0.409182 1.01558 
3.07244 1.88279 0.970712 
1.78161 2.74188 -2.41765 
-3.5644 -1.08678 -0.11777 
0.0163509 1.56242 4.22596 
3.04905 -1.69314 2.35165 
2.68823 -2.50446 1.58529 
-1.3133 3.89243 -0.556014 
-2.74268 2.41636 2.37305 
-3.74822 -0.789361 -1.15704 
3.60036 1.02859 -0.496648 
-2.26327 -3.19205 0.432316 
0.33839 0.987852 -4.02693 
-2.2891 -3.15027 -1.02855 
-2.56297 1.28782 -2.65207 
2.06544 0.1754 -2.95955 
4.00152 0.379502 -1.46273 
-2.02147 -2.73889 2.42249 
1.97022 -2.4827 2.83701 
-1.53304 -1.2423 3.2886 
3.70443 -0.86021 -1.82683 
-0.276575 -0.742297 4.06514 
3.92895 0.496925 -0.10493 
-2.45551 1.71052 -2.71848 
1.10532 -2.53592 2.7509 
-3.07335 0.860968 -2.33664 
-3.51195 -1.17164 -1.23032 
1.51425 -1.8059 -3.30021 
3.38591 0.220249 2.14346 
2.73537 -2.42818 2.19845 
-0.367678 -3.63661 -0.969939 
-0.479042 -1.90668 3.76903 
0.136208 -0.34767 -4.15189 
3.06812 0.939185 -2.33987 
3.62716 0.985235 0.859991 
2.25819 -1.07605 2.84043 
-0.418058 -1.76514 -3.97769 
4.20273 0.0539404 1.452 
-1.08081 0.0471083 3.56809 
0.796729 -2.84114 -2.25704 
1.09648 -2.71853 -2.45542 
2.43671 2.91143 1.89841 
-1.26907 3.05726 -1.90735 
-2.07233 -0.897773 -2.9553 
-0.596345 3.5137 -1.16882 
-1.20563 4.00823 -0.368655 
-1.27877 -0.867209 3.44574 
-1.48986 -2.39445 -2.9798 
0.0138523 -4.19547 -0.0656822 
-2.19184 -3.30763 0.416865 
-0.199909 1.25781 4.11252 
-1.10306 1.19815 3.55434 
3.07221 -1.88316 -1.78962 
2.40571 -2.96159 0.443054 
2.96654 -2.05413 -0.746091 
-2.64799 -2.56956 0.711279 
0.569771 -2.56127 2.70988 
-4.06948 -0.269539 -1.67423 
1.32121 0.60586 -3.41951 
-2.16427 -2.62014 -2.61462 
-0.682488 2.19994 -3.29452 
0.813174 -3.56494 -1.08592 
-0.670832 -0.693322 3.82147 
-1.46247 2.10623 3.33221 
-0.692935 -2.3896 -2.98765 
0.316023 0.869667 -4.04076 
-3.16369 -1.73514 -2.16462 
2.25778 -0.631944 -2.84069 
-3.48944 -1.20806 -0.899863 
-3.42128 1.31836 -0.0423089 
2.74693 2.40948 2.2039 
1.27719 2.76531 -2.37974 
2.79324 -0.694579 2.50975 
-2.91893 -0.684629 2.43207 
-0.21982 3.54338 1.12079 
-1.28616 2.42198 -2.93525 
-0.690142 -2.63946 -2.58336 
1.27269 -3.30965 -1.49897 
-0.431093 -4.20386 -0.0521131 
3.62819 -0.98357 0.19092 
3.42099 -1.31882 2.10745 
1.88388 1.64837 -3.07177 
-3.83225 0.653386 0.674756 
3.88094 -0.574614 1.52467 
-0.868829 -3.97368 -0.424556 
-3.32457 1.47484 0.655445 
1.982 2.50133 2.80686 
-0.345865 -1.71282 -4.02231 
0.684307 2.57658 2.68512 
-0.981492 1.36716 -3.62947 
-2.47458 -2.85014 1.60715 
3.97365 -0.424606 1.6286 
1.67668 -2.63528 -2.59012 
-0.373339 4.16537 0.114389 
-0.715634 -4.22232 -0.0222407 
-0.516043 -3.91213 -0.524149 
-3.90648 0.533288 -0.421442 
1.36741 -1.62416 -3.39096 
-2.26259 3.19315 -1.66808 
2.4835 -2.06854 -2.70118 
-1.18579 -1.52276 3.50321 
1.75795 -1.91746 3.1496 
-1.57932 3.79216 -0.718259 
-3.47035 -0.313807 -2.09127 
-1.34774 -4.04316 0.312133 
-1.1967 0.882423 -3.49646 
2.8276 2.27895 -0.457552 
-0.605196 3.75351 0.780788 
-3.19854 1.67875 0.194677 
-1.74036 4.03815 -0.0852747 
-0.299603 1.422 -4.0509 
-1.31062 0.241373 -3.42606 
3.61865 0.999011 -1.44678 
0.0755228 -4.11845 0.190315 
2.92233 -2.12568 1.68747 
-0.402322 0.173508 -3.98742 
-1.44316 2.49032 -2.82468 
-1.01028 3.97541 -0.42176 
2.72228 2.44936 -0.41169 
3.25926 1.53804 2.22173 
3.338 1.45311 0.480664 
0.833334 3.90158 0.541213 
2.90213 2.15836 0.87633 
-1.82133 0.42353 -3.11042 
3.44051 -1.28724 1.48293 
1.12304 -0.142426 3.54199 
1.50163 2.2145 3.27097 
2.70865 -1.85002 -2.56203 
2.43188 1.22152 2.73308 
1.68839 4.01525 -0.357292 
1.38135 -3.83647 0.646569 
-1.25481 3.47173 -1.23673 
3.00394 -1.88248 2.37953 
-1.78796 2.85458 -2.23529 
2.84356 -2.25312 -1.5766 
-0.0142244 -3.31838 1.48485 
0.269704 -4.01224 0.362166 
1.23401 -3.9283 0.49798 
-2.6428 2.57796 -1.59863 
-2.94169 -2.09435 -1.57435 
-0.222932 3.86734 0.596611 
-1.44468 -3.31069 1.4973 
3.06403 -0.567435 -2.34239 
-3.56571 -1.08465 -0.0117303 
-2.09444 -2.13433 2.94163 
-0.394103 1.9881 -3.63729 
0.381038 2.60726 2.63546 
0.908273 3.99993 0.382077 
3.98911 -0.399592 -1.62994 
2.06299 1.41486 2.96107 
-2.56921 -2.69703 -0.70741 
-0.871543 2.19258 -3.30643 
1.31677 1.23051 -3.42226 
3.12885 -1.5006 2.30233 
1.94837 -0.0129323 3.03191 
-0.0268855 4.15453 -0.131934 
-2.95502 2.07279 1.59557 
3.42062 0.420182 2.12201 
-2.54422 2.3478 -2.66366 
2.64122 1.3386 2.6037 
0.487067 3.84088 0.639432 
-2.01777 2.57544 2.68696 
-3.3622 1.41394 1.01886 
3.15364 -1.75141 1.41412 
-3.84127 0.638798 -1.22685 
0.709127 -4.15353 -0.133553 
1.32485 -0.0382444 3.41727 
3.8099 -0.689556 -0.666965 
-2.61632 -2.31976 2.6191 
1.47481 -0.99459 -3.32458 
1.87253 -3.19285 1.68796 
4.06666 -0.274103 1.18997 
1.82001 1.11444 -3.11124 
1.95195 2.0371 3.0297 
0.789279 2.34634 3.05764 
-2.50023 -2.80864 -0.717394 
-2.40301 2.96594 1.29069 
3.76715 0.758731 -0.900309 
2.38331 0.644512 2.7631 
-3.32945 0.11177 2.17836 
-3.49896 -1.19266 0.710488 
1.2189 -2.34212 -3.06448 
0.842475 -2.13068 -3.40659 
1.18111 -1.89807 -3.5061 
-0.147099 -0.197931 -4.14516 
-4.04647 0.306772 -0.566967 
-3.91155 -0.525081 -0.179215 
-2.07426 -1.21526 -2.9541 
-0.388255 -1.21896 3.99611 
-0.502487 -2.95926 -2.06592 
-3.41604 -1.32684 -1.60713 
1.04854 3.71105 0.849494 
-3.54841 0.273331 -2.04303 
-2.07522 -3.45028 -1.27144 
2.58607 0.564324 -2.63779 
-0.13145 3.43659 -1.29358 
3.268 1.56637 2.07096 
-1.79799 -1.22428 -3.12485 
2.46853 2.85994 -0.455744 
-0.419506 -3.83982 0.641149 
-0.3051 -2.24097 3.22814 
0.475042 -2.24163 -3.22707 
3.27082 -1.56181 1.76028 
-2.79286 -2.33516 0.612138 
0.444884 2.26278 -3.19285 
2.64557 -1.51586 -2.60101 
-2.13571 3.39845 0.388825 
3.60743 -1.01716 -0.776093 
-3.90374 0.53772 0.296747 
-0.563039 0.352511 -3.88809 
-0.0249136 1.75162 4.01992 
-3.69184 0.880577 0.726411 
3.60274 1.02475 0.968164 
2.17477 1.40361 2.89199 
-0.350395 1.52199 -4.01951 
0.633968 -2.14011 -3.39133 
0.892652 3.19369 -1.68661 
-1.7855 0.965851 3.13257 
3.64607 0.588897 -1.98267 
-2.31658 -1.20133 -2.80434 
-0.700085 1.21505 3.80339 
-0.4985 -3.31267 -1.49409 
-0.628462 -3.1934 -1.68707 
0.20884 0.0577364 4.107 
0.510248 1.6838 3.92072 
-1.89659 3.78535 -0.455774 
-2.23623 2.65172 -2.56354 
-1.01899 1.24769 3.6063 
-1.49994 3.26049 1.57852 
-0.694648 1.95522 -3.6905 
-1.7747 -3.98257 -0.229196 
-2.03411 -1.03084 2.97892 
0.454132 -3.05655 -1.9085 
1.1506 -0.312189 3.52496 
1.16566 -2.61098 -2.62945 
1.3558 -2.78013 -2.35576 
-2.89094 -2.17647 -1.86816 
-2.90143 2.15949 -0.773443 
-2.59172 2.01124 2.6343 
1.10707 -1.00496 -3.55186 
0.269495 1.71138 -4.06951 
0.386967 2.52066 -2.77558 
3.27997 -1.547 1.17495 
0.584435 -1.03847 3.87487 
0.0336953 3.07177 1.88387 
2.03481 -0.0240265 2.97849 
-4.06599 0.275193 0.51501 
2.93777 -0.783067 -2.42042 
-1.52855 -0.640061 3.29137 
-0.694579 -2.81714 -2.29588 
2.55179 -2.72522 1.6691 
-0.251996 -3.15245 1.75333 
-3.76275 -0.765839 -0.111754 
-1.28322 4.06289 -0.280204 
4.0863 -0.242337 -0.808972 
-1.88422 -2.46023 2.87337 
4.23587 0.000329152 1.05141 
-3.19077 1.69133 1.25181 
-2.70562 -2.47631 -2.29039 
3.77335 -0.748693 -1.12309 
-2.8431 -2.25387 0.671432 
-1.47509 2.97946 2.03323 
2.27492 -1.44113 2.83009 
-3.10625 1.82809 -1.37919 
3.31116 -0.125546 -2.18966 
-3.76449 -0.763029 0.360892 
-1.02207 2.50012 -2.80882 
-3.51743 -1.03007 -2.06218 
2.04371 -1.17175 -2.97298 
0.15252 -0.566708 -4.14181 
3.47124 -1.23752 0.698893 
3.21966 0.884443 2.24621 
-2.15345 1.3868 -2.90516 
2.32596 3.09062 -1.23363 
-2.95424 -2.07404 0.843211 
-3.86226 -0.604832 -0.769517 
3.85389 0.61837 -1.26708 
-3.19406 -1.686 1.57481 
-0.622931 -0.270531 -3.85108 
-1.65172 2.49159 2.82263 
-0.851691 3.93772 -0.482732 
0.159648 -1.07868 -4.1374 
0.886906 -2.19353 -3.30489 
2.90826 -2.14844 -1.98292 
1.46701 -4.12196 -0.184633 
0.875341 -2.40558 2.96179 
3.31474 0.592729 2.18744 
2.36792 2.82559 -2.2822 
1.5916 0.177578 -3.25241 
-3.20592 1.66682 -1.02396 
-1.84815 -3.86374 -0.155716 
3.42827 -1.1832 2.11728 
1.34485 -3.07219 -1.88319 
0.222218 0.732967 -4.09873 
-0.47203 2.85538 -2.23399 
-2.2392 -0.15958 -2.85217 
-2.94707 -2.08565 -2.04922 
2.47842 -0.643735 2.70432 
0.3192 2.78642 -2.34558 
2.49384 -2.81898 0.634319 
0.991577 1.10981 -3.62324 
-2.4842 -0.966932 -2.70075 
-2.34473 0.957444 2.78695 
-2.26002 1.6642 -2.8393 
0.0183372 -2.8465 2.24837 
3.02628 1.95748 -1.7353 
0.172235 3.12962 1.79027 
-0.838305 -1.20822 -3.71797 
-2.9808 2.03107 0.828079 
4.1352 -0.163203 1.2125 
-2.13985 -3.39176 -1.36043 
-1.31631 3.53961 -1.12689 
0.121156 -3.33479 -1.4583 
-0.606796 3.89768 0.547521 
3.33194 1.4629 -1.41458 
0.744498 -4.23514 0.00150315 
1.8964 -1.67815 3.06403 
-1.44823 -3.91197 0.524399 
-1.12222 0.723713 -3.5425 
0.248335 1.24753 -4.08259 
0.122375 1.56379 -4.16044 
4.12227 0.184134 -0.961064 
3.81997 -0.673259 0.27171 
2.89685 2.1669 1.21358 
0.217963 -3.90799 0.53084 
2.03125 -3.56748 -0.591029 
-2.98404 1.12437 -2.39183 
3.76962 0.287456 -1.90631 
-0.238371 -0.610917 -4.08875 
-3.37404 0.487418 -2.1508 
2.10397 -3.03643 1.94105 
1.13317 -2.48833 -2.8279 
-3.27875 -1.00724 -2.20969 
2.83986 1.50805 -2.48094 
3.06213 -1.89947 -0.834782 
-3.88842 0.562501 1.37929 
-3.08777 1.85798 -1.47859 
2.99092 -2.01469 -2.08016 
0.543635 1.90893 -3.7654 
-3.06764 1.89056 -2.31243 
1.31399 3.36311 -1.41248 
-3.33033 0.733995 -2.17781 
-4.18514 0.0824044 1.39506 
-1.10644 3.88939 0.560933 
-2.39394 -2.98063 -0.416413 
-3.05984 -1.90318 -0.614188 
1.49105 -4.11895 0.189499 
3.28296 -1.54215 -1.57519 
-1.75723 3.50794 -1.17813 
1.22289 -0.160449 3.48028 
-1.07494 2.76795 -2.37546 
-4.02095 -0.348067 -1.43066 
-3.66796 -0.919215 -0.597948 
2.71469 2.46163 1.48952 
-2.44649 0.315366 2.72406 
-3.32044 1.48151 2.13053 
-0.392674 3.65835 -0.934762 
-1.10669 -3.24488 1.60378 
2.91819 -1.36213 -2.43253 
0.238569 0.299225 4.08862 
-0.978632 3.61147 1.01062 
-3.38079 0.0225357 2.14663 
-0.567463 3.129 -1.79127 
0.754177 3.02995 1.95154 
-0.614992 -3.31336 -1.49297 
-1.23185 -1.92213 -3.47474 
0.128867 -0.766292 -4.15642 
0.179643 -0.720701 4.12504 
-1.67761 0.171189 -3.19925 
-1.39819 2.222 3.25884 
-2.75693 -2.3933 -2.50467 
-1.87877 -2.37214 3.0159 
2.18732 3.31495 -0.419487 
0.17383 0.0513379 -4.12864 
-2.83268 1.34629 2.48538 
-2.19504 -2.56743 -2.69991 
0.781175 -3.2802 -1.54663 
0.942286 -0.25379 -3.6537 
3.84419 -0.308211 -1.86023 
-3.66746 0.920027 1.06312 
-0.511515 2.82735 2.27935 
-1.40646 2.8088 -2.30937 
-3.63774 0.968119 0.709571 
2.11521 2.96867 -2.0507 
1.33772 -3.12147 1.80346 
-1.82987 1.98715 3.10515 
3.18245 1.70479 -1.1612 
0.858239 -3.14059 1.77253 
-2.57387 -2.68949 -1.12566 
-2.27568 0.168562 2.82962 
-2.39737 -1.15262 2.75442 
-0.271702 -3.41324 1.33136 
-2.72991 -1.73816 2.54889 
1.9355 3.7224 -0.391998 
-2.82328 0.715095 -2.49119 
1.07346 3.06843 1.88928 
1.63768 1.80353 3.22393 
-2.142 -3.38827 0.608566 
-1.17282 -1.75483 -3.51123 
-3.19273 0.30234 -2.26286 
-2.45536 2.88124 2.08551 
2.51211 2.78942 -0.821745 
-3.87171 0.589541 -1.44348 
-2.1318 -3.40478 0.927829 
0.531231 0.433511 -3.90775 
3.94744 0.467006 0.188847 
-1.76216 0.210781 -3.14699 
2.31206 2.98445 2.02516 
1.50492 -1.90652 3.30597 
4.13577 -0.110687 1.68002 
-4.01706 0.209399 -1.75339 
-0.933308 3.60816 -1.01598 
3.39954 -1.13515 -2.13504 
3.27445 -1.55593 2.06747 
1.50079 -1.65235 3.30853 
3.35055 -1.22204 -2.16532 
-0.584767 -1.52296 3.87466 
0.723738 -2.72021 2.45272 
0.186235 1.9736 3.66075 
2.98055 2.03148 1.44366 
2.0348 -2.06252 -2.97849 
-4.10467 0.212607 -0.799684 
-1.62591 -3.1411 -1.77169 
-4.12582 -0.178389 -0.577055 
2.4814 2.83912 1.58455 
2.2178 3.26563 -1.42133 
-2.22356 -2.98019 -2.03205 
-1.90107 -1.89587 3.06114 
2.61861 -1.68966 2.61768 
2.19695 1.51738 2.87828 
1.41066 3.12774 -1.79331 
-1.23672 -1.43162 -3.47174 
1.04771 -3.33013 -1.46584 
-2.52471 -2.20489 -2.67571 
1.26076 -1.58309 -3.45688 
1.95794 3.54458 1.11885 
-2.76633 -2.37809 -0.461108 
-0.950933 -0.167174 -3.64836 
-0.936501 -3.32921 1.46732 
0.0119802 -3.03013 -1.95125 
1.46466 -1.08964 3.33086 
-3.99449 0.382717 1.76734 
-0.610216 0.413817 3.85893 
-2.72678 -1.50941 2.55083 
1.24855 -3.06506 1.89473 
1.66521 -2.82308 2.28626 
1.48096 2.48585 2.83191 
-2.89594 -0.782144 2.44628 
-1.49312 1.53249 3.31327 
3.14918 -1.75863 -2.02907 
0.219643 -3.84561 -0.631774 
0.857963 -3.99373 -0.392116 
-3.6317 -0.977881 -0.00669643 
0.909543 -2.09023 -3.47204 
-3.16144 1.73879 0.270061 
1.72 -2.3176 3.10415 
0.40477 -2.90775 2.14926 
3.91183 0.0916731 -1.81843 
0.227539 4.07362 0.262849 
-2.6523 -1.20113 2.59686 
2.64616 2.57253 -1.15535 
-0.0498472 1.80829 -3.92822 
2.07767 3.49236 0.582677 
-0.166326 -1.99543 3.62543 
1.23217 1.04856 -3.47455 
2.03639 0.574464 2.97751 
3.90494 -0.535773 0.294168 
3.25547 1.58665 -1.86961 
-0.0771589 2.65009 -2.56616 
-2.84117 -2.25699 0.872964 
1.67578 -3.63618 0.970636 
0.843532 -3.64818 0.951217 
-0.880158 0.103976 -3.6921 
-2.6235 1.88437 -2.61466 
0.914357 1.2239 3.67096 
-0.0268677 -2.83942 -2.25982 
2.34305 -3.06296 -0.522356 
2.91028 2.14517 -2.30384 
1.63633 -4.05676 -0.290124 
2.97702 -1.0133 -2.39617 
-1.66769 3.29719 1.51914 
-0.713274 1.83896 3.79524 
3.01642 -1.31635 -2.37182 
1.47793 0.297048 3.32266 
3.30171 1.51182 -1.31242 
1.4096 -3.33627 1.45591 
2.8828 2.12255 2.4544 
3.09644 -1.84396 -1.98749 
-1.1251 2.18367 -3.32085 
1.16258 3.65348 0.942641 
1.88943 -1.45175 -3.06834 
-3.55044 0.89314 2.04178 
-0.654568 -2.69869 -2.48753 
0.0278005 -3.00095 1.99847 
-3.42164 -1.31778 1.67734 
0.554595 0.981146 3.89331 
4.18813 0.0775654 0.15733 
-2.37107 -3.01763 0.702452 
0.256404 -2.66645 -2.5397 
-0.817507 3.64064 -0.96343 
-2.56578 -2.70258 1.08517 
3.90996 0.527647 0.469294 
-0.223178 -1.54332 -4.09814 
-2.25128 2.96057 2.06381 
-2.69547 -2.49274 0.763748 
3.54039 1.12564 0.507557 
0.855103 3.54389 -1.11997 
-3.49126 0.41387 -2.07835 
1.322 3.19048 -1.69181 
-1.37447 1.19252 3.3866 
3.07216 1.88325 0.11434 
-4.18013 0.0905134 0.149221 
2.69804 -2.48858 0.618955 
0.446439 1.92256 -3.74333 
-2.68459 2.51034 -2.50512 
2.75659 1.08553 2.5324 
1.99368 -1.64264 3.00391 
-1.54953 -2.97978 2.03272 
-1.24941 -0.888207 -3.46389 
1.51291 2.0981 3.30104 
2.44341 1.32554 2.72596 
-1.8156 -3.89177 -0.557081 
0.728554 -3.505 1.18289 
-2.18845 -3.30739 1.50264 
1.14339 -4.23262 -0.00557865 
-3.71075 0.84999 1.79708 
1.6297 0.816815 -3.22886 
-1.99964 2.08375 -3.00022 
-0.714232 3.49163 -1.20453 
-1.48111 1.1014 -3.32069 
1.09575 2.58987 2.66361 
-3.18631 1.69854 -0.442388 
-1.75796 2.83971 2.25935 
0.984862 2.96146 2.06236 
-0.150771 0.373757 4.14289 
-0.374815 -1.8624 -3.84068 
0.132046 -3.64223 0.960859 
2.3209 0.71719 2.80167 
0.0245746 2.39294 -2.98224 
0.299157 -0.153385 4.05118 
-2.15214 2.49035 -2.82463 
2.8229 2.28656 1.22248 
-0.53762 -2.33262 3.07984 
0.622367 3.6871 0.888257 
-0.181962 1.77465 3.98266 
2.17843 -3.32933 1.24548 
-2.40656 -2.9602 -0.927558 
-0.11166 -2.70803 -2.47241 
2.47616 2.8476 0.867934 
-1.3318 -0.670974 3.41297 
-1.85015 3.8605 -0.144746 
-1.53575 3.86845 -0.594824 
2.03382 1.74539 2.9791 
-0.973152 -2.80826 -2.31024 
-3.02748 1.95553 -0.52424 
1.68421 1.24968 -3.19517 
2.55726 -2.71638 -1.80342 
4.10109 -0.0180099 1.70146 
-0.298433 2.5857 2.67035 
2.61928 -2.61602 1.56895 
-3.85246 -0.620699 -1.76023 
-1.63854 -0.419519 -3.22339 
2.68998 -2.50162 1.42679 
-1.93186 3.65516 0.939932 
-2.89181 -1.79703 2.44883 
3.08703 1.85919 -0.07417 
2.0085 -1.27969 2.99475 
-3.82526 -0.627084 1.87193 
1.43493 1.0958 -3.34923 
1.2635 2.83884 -2.26077 
0.516402 -2.95411 -2.07426 
-1.72997 0.218082 3.16689 
3.04723 -1.67292 -2.35278 
-1.91102 0.346368 3.05499 
-3.38141 1.38287 0.92389 
4.03284 -0.328832 -0.301318 
0.975361 -3.91428 0.520665 
-2.61284 2.62643 0.00482123 
1.46134 -1.99708 3.33291 
1.59562 -2.92355 -2.12371 
-1.4415 3.43184 1.30127 
-0.368527 -3.79236 -0.717936 
-0.76073 0.0874017 3.76591 
0.971252 4.23184 -0.00683372 
0.00227873 2.47845 2.84388 
0.645799 0.902399 -3.83694 
-0.382864 -0.794853 -3.99945 
3.50097 -1.18941 -1.23961 
-1.28048 -2.91084 2.14426 
4.00006 -0.381876 -0.896267 
-2.52463 -1.53818 -2.67576 
1.24886 -2.57172 -2.69297 
-0.916824 -1.82915 -3.66944 
2.47439 -1.60788 2.70681 
0.492873 -2.87143 -2.20803 
-1.47231 -2.35949 3.03637 
1.54938 -2.43288 2.91763 
0.473544 -2.06995 -3.50485 
2.2624 0.53565 -2.83783 
-0.983648 -3.5895 -1.04617 
3.27482 1.55534 -1.06814 
2.52823 -1.07915 2.67354 
-3.20765 -1.66402 -0.805462 
0.915201 -3.54004 1.1262 
-0.934422 -3.21521 1.65178 
-2.73139 -2.43462 -1.77564 
0.0961326 0.900754 -4.17665 
2.74597 -2.41103 0.263507 
0.320815 2.21229 3.27454 
2.92521 0.495864 -2.42819 
-3.33345 1.46047 1.20853 
1.00202 1.2395 -3.61678 
-3.89545 0.551138 -1.82401 
0.533759 3.18488 1.70086 
-2.74685 1.34635 2.53842 
-3.47117 -1.23763 1.79941 
0.470654 -0.767351 -3.94519 
-0.334104 -2.51024 -2.79244 
2.48329 2.83605 0.392149 
0.133132 -2.35603 3.04196 
0.103823 -2.95314 -2.07582 
1.31783 -3.0151 -1.97557 
-3.37023 -1.40096 1.65995 
3.84204 -0.637553 -1.65993 
-2.00887 -3.60368 0.0499391 
2.38679 -2.9922 -0.0482113 
4.12174 -0.184992 0.396294 
0.280551 3.93594 -0.485619 
-2.73917 2.42203 1.43741 
-3.28444 -1.53977 -0.00550199 
2.49158 2.82264 0.262257 
-2.91998 -1.48258 -2.43142 
3.3911 -1.36718 1.87714 
1.90649 0.261841 3.05779 
3.19199 1.68935 -0.572187 
-3.9014 0.541499 -1.22207 
-3.79331 0.716399 1.03517 
-0.88129 1.75588 -3.6914 
-1.61155 1.8999 -3.24008 
1.1963 -2.40725 2.95908 
-2.42297 2.26672 2.73859 
-3.55047 -1.10932 -1.13615 
0.930208 -4.04775 -0.304697 
-0.62421 -3.41307 -1.33164 
1.69268 3.19157 -1.69003 
2.6141 -2.6244 -1.84315 
1.10516 0.971595 3.55304 
0.916052 2.4015 -2.96839 
1.52739 -0.556273 -3.29209 
2.22953 -3.24664 -1.16588 
2.98686 -0.0177288 2.39009 
-2.94181 2.09415 0.313514 
-3.55537 1.10139 -0.773576 
3.4117 -1.33385 -1.32701 
0.257685 2.87463 -2.20286 
1.33059 -2.384 2.99671 
-1.83538 0.552351 3.10174 
1.1967 -3.16566 -1.73195 
2.54051 2.74346 -0.72768 
0.960007 1.7068 -3.64275 
0.69685 2.72817 2.43984 
-0.470478 3.19335 -1.68716 
1.45502 1.91399 3.33682 
2.86468 0.0332998 -2.4656 
-4.05235 0.297255 0.833744 
-2.87841 -2.19674 1.95551 
0.0295038 -3.83588 0.647521 
2.65788 2.25952 2.59341 
-2.34029 3.06744 1.15796 
-0.757273 0.378809 3.76805 
-1.87114 3.60781 1.01655 
2.03843 1.91745 -2.97625 
-3.64615 -0.954507 -1.00652 
3.71655 0.840594 -1.36224 
-3.9334 0.100592 -1.80509 
1.80772 -3.65903 0.933669 
3.89924 -0.544994 -0.568473 
0.538672 2.94174 -2.09427 
-2.25206 3.21019 0.576664 
-3.19063 0.114117 -2.26415 
2.79328 -2.33447 0.946475 
2.35495 1.88334 2.78063 
1.69588 3.67844 -0.902259 
3.39812 -1.35584 -2.00066 
2.84246 -1.62351 2.47933 
2.30298 -2.56925 2.69696 
-0.788074 -2.96703 -2.05334 
1.07246 2.26404 -3.1908 
-1.25007 -1.01947 -3.46349 
0.534288 0.551313 -3.90586 
2.79987 0.771797 2.50565 
0.342608 1.25085 4.02432 
3.39531 -1.36037 0.87317 
-0.958495 -1.33442 3.64369 
-3.26473 -1.57166 0.0871804 
-2.86946 2.21122 1.74987 
3.34316 1.44475 1.76968 
2.46271 -1.84174 2.71403 
-1.13764 4.18407 0.0841332 
-3.63996 -0.96453 0.505167 
4.05889 -0.286686 -1.58891 
3.69405 -0.0566295 -1.95302 
-2.53209 2.75709 -0.560459 
-0.391527 -3.45052 -1.27104 
0.627075 -3.85322 0.619461 
-2.5773 -2.68394 1.31114 
2.65604 2.55654 1.23088 
-2.25035 3.19219 1.68903 
-1.68612 1.91983 3.19399 
-1.09001 -1.07916 -3.5624 
2.86742 -2.21452 1.55419 
2.61503 -2.6229 -2.21832 
-0.396524 -2.60519 2.63882 
-2.93845 2.09959 -0.495054 
1.50393 -2.71198 -2.46603 
-0.754935 1.64363 3.76949 
-0.127837 2.91053 2.14476 
-1.90809 -3.76675 -0.308461 
-2.98903 -0.441377 2.38875 
2.48815 -1.10461 -2.69831 
-1.80286 0.0340229 3.12184 
1.91849 3.46013 -1.25549 
-1.4926 -0.385529 3.31359 
-0.010694 -2.04362 -3.54746 
3.29915 -1.51597 -0.491375 
-0.231316 0.30789 -4.09311 
2.98043 -0.54004 2.39406 
2.57392 -2.68942 1.31665 
2.73316 -2.43176 -2.04128 
-0.601038 4.14396 -0.149035 
-0.699921 -3.45024 -1.2715 
-0.105576 3.51458 -1.16739 
1.54078 3.94494 0.471058 
2.24314 2.48747 2.8293 
0.274642 2.78875 2.34181 
3.55903 0.778365 2.03646 
0.927528 -1.61784 3.66282 
-0.084309 -1.05492 4.18396 
2.71523 -2.46076 0.381421 
0.88274 0.339183 3.6905 
1.1196 -2.89363 2.17212 
3.29628 -0.419986 -2.19885 
1.97731 0.209676 -3.01402 
1.85484 3.54895 1.11178 
-3.55401 -0.544264 2.03957 
-1.23729 3.54835 1.11275 
-3.16401 1.73462 1.34651 
2.24926 1.9254 2.84595 
2.36081 -3.03422 1.50794 
-1.53242 2.51351 2.78717 
3.50795 1.17812 0.603087 
-1.38023 3.46919 -1.24083 
2.15832 -2.72906 -2.43838 
-3.20039 1.67576 1.90275 
2.13196 2.62041 2.6142 
1.14327 -3.87608 -0.582467 
-3.54158 -0.500214 -2.04725 
-1.44354 -1.48154 -3.34391 
-2.07235 -3.50096 0.981386 
-1.4639 -0.284609 -3.33133 
2.54879 -2.73007 -0.185431 
-4.11873 -0.189857 0.690603 
-3.89477 -0.552231 -0.426073 
-3.00012 1.9998 1.44036 
0.275711 -2.54174 2.74148 
-2.12193 -3.19467 1.68502 
1.53356 -3.55311 1.10506 
-3.41746 -1.32454 0.757315 
2.3406 -3.06694 -0.00137944 
-3.3133 -0.824211 -2.18833 
0.379138 -1.95427 -3.69202 
0.60487 3.62382 -0.990634 
-2.03382 0.146279 2.9791 
-3.83683 0.645976 -1.68198 
-3.27027 -0.267737 2.21493 
0.626865 -3.71938 -0.836025 
0.55185 3.8985 -0.546194 
2.69727 1.36861 -2.56907 
1.7779 3.97741 -0.305477 
2.96105 -1.48276 -2.40604 
2.6145 -2.62375 -1.74143 
2.2511 -2.03302 -2.84481 
1.42859 -3.55096 1.10854 
-0.920765 0.477964 -3.667 
-0.676105 0.965018 3.81821 
1.81549 2.03773 -3.11403 
2.90441 -2.15466 -0.452999 
2.06845 2.82873 -2.27712 
2.3316 1.35891 -2.79506 
1.38972 0.182597 -3.37717 
2.43666 2.50861 -2.73013 
2.63081 -2.59737 -0.474069 
1.59695 4.09819 0.223093 
-2.58057 -0.184628 2.64119 
-3.10508 1.82997 0.326663 
3.05942 0.0715104 2.34524 
1.04786 3.02545 -1.95881 
3.03499 -0.930747 -2.36034 
-3.51702 -1.16344 -0.506147 
0.237788 -2.32747 3.08818 
0.700378 -3.02109 -1.96587 
-0.339685 -3.57842 -1.0641 
-0.0700454 -3.83881 -0.642776 
-1.10481 2.47827 2.84418 
-2.19702 -1.10171 -2.87824 
1.24257 -0.466489 -3.46812 
-2.56082 2.71061 0.722144 
-2.06574 -3.51167 1.12081 
-0.189832 -0.318746 4.11875 
-3.16301 0.879198 -2.28122 
-3.76805 0.524628 -1.90729 
0.388646 -3.70842 -0.853761 
-2.57456 -2.68838 0.240385 
-1.54625 -2.15482 -3.28043 
0.385229 -2.17153 3.3405 
-1.80625 0.537157 -3.11974 
-0.650404 -3.66 -0.932103 
-2.84068 2.25086 -2.48043 
-1.15396 0.996742 3.52288 
-0.647548 2.85209 2.23933 
-1.7877 -2.72077 2.45181 
1.01392 -2.65791 2.55351 
2.44008 -2.19613 -2.72801 
1.91432 2.69686 2.4905 
0.116879 1.68544 -4.12701 
-2.91618 2.13562 -0.623768 
3.17859 1.71103 -1.66082 
-0.887568 -0.810803 3.68752 
1.68465 -2.28067 -3.1639 
-3.06104 -0.0364946 -2.34424 
2.66395 2.54374 -1.91357 
0.0869711 2.95692 2.06971 
3.39013 -0.0401041 -2.14085 
-3.84872 -0.62675 0.596043 
-2.45374 2.88387 -0.853004 
-0.734373 0.151452 -3.7822 
3.42079 -1.31916 1.23824 
-1.21763 -2.34038 3.06728 
-0.038987 -2.78555 -2.34698 
-3.47143 1.23721 2.08106 
-1.0774 4.12427 0.180893 
1.73266 -4.02556 -0.340614 
3.63787 -0.967908 -1.0961 
0.972846 -1.95182 -3.63482 
3.90899 -0.529228 -0.810844 
2.83819 -2.26182 -0.0492592 
1.45518 1.06902 3.33672 
-3.19113 1.69075 1.75118 
3.48455 1.21598 1.51611 
-3.04442 -1.92812 -0.0778259 
-0.398619 2.45592 -2.88034 
2.06624 -1.79196 -2.95906 
-0.328176 3.98531 -0.405731 
-0.563019 -4.15864 0.12528 
1.99037 -1.07845 3.00595 
-1.18885 1.6885 -3.50132 
-3.42124 1.31841 2.11054 
-1.55359 1.82554 3.2759 
-1.63362 4.07948 0.253372 
-0.760952 4.12051 0.186975 
-0.303362 1.60703 4.04858 
-2.98309 2.02736 0.490376 
3.99918 -0.383293 -0.222239 
2.23085 -1.9835 2.85732 
-0.2915 2.99863 -2.00221 
0.201061 -0.971423 -4.11181 
1.33112 3.8111 -0.68762 
1.21985 -3.43161 1.30165 
2.1191 -3.15211 1.75388 
-1.42393 3.20298 -1.67156 
3.15512 -0.87294 2.2861 
0.327988 -1.3488 4.03336 
1.916 0.825444 -3.05192 
-0.401302 1.25611 3.98805 
1.11803 -3.29109 -1.529 
2.28058 2.55134 2.72595 
0.244038 3.06909 -1.88821 
-1.31542 3.20806 -1.66335 
3.64665 0.882337 -1.98231 
3.90315 -0.538673 1.61677 
2.41187 -0.731977 -2.74545 
-1.32335 -0.0590115 -3.41819 
-0.62274 0.865264 -3.85119 
3.95436 0.455812 1.51868 
1.8079 -2.71038 2.46862 
-2.61783 2.61836 -1.76467 
0.535854 1.54923 3.90489 
-2.15176 -3.37248 0.156248 
-0.30208 3.19625 -1.68247 
2.69907 -2.48692 -1.88785 
-3.22149 -0.845026 -2.24508 
-3.18151 1.70631 -0.333378 
-2.21691 1.32866 2.86594 
0.402619 2.69863 2.48763 
-2.32854 -0.308783 2.79695 
-3.19214 1.68912 2.0771 
-1.42987 2.54567 2.73513 
-1.9138 -3.42221 -1.31684 
-3.23922 1.61294 -1.79765 
0.897455 -3.47805 -1.2265 
-1.63446 -3.34755 1.43765 
1.86853 -2.19406 -3.08125 
0.243833 4.1311 0.169837 
-1.24422 4.03814 0.320248 
-2.6194 -2.61582 -2.05434 
-1.55764 2.31173 -3.11364 
-3.62158 0.994256 -0.0956362 
-2.07241 -2.58346 -2.67398 
-3.12559 -0.481179 2.30435 
-2.24346 -3.11637 -1.81172 
0.978801 0.184795 -3.63114 
-1.55 1.22196 -3.27811 
-3.31331 -1.49305 1.8879 
-0.198676 2.49684 2.81413 
3.7898 -0.72207 0.123437 
4.18473 -0.0830607 -1.43131 
-1.94888 -3.33241 1.46216 
0.844055 3.35194 1.43055 
-0.13307 -0.00934482 4.15383 
-0.792049 -2.15026 -3.37492 
1.98899 1.5652 -3.00681 
-2.93132 2.11113 -1.23509 
-0.190875 0.525697 -4.1181 
-0.237543 1.57357 -4.08926 
4.15542 0.13049 1.25753 
-2.81235 2.30362 0.184799 
1.79583 0.772556 3.12618 
-0.748722 -2.2072 -3.28277 
-2.82796 -1.94438 2.48829 
3.53711 1.13094 0.932928 
0.297973 -2.93523 -2.1048 
-1.82064 -0.0480282 -3.11085 
-3.36414 -0.523287 -2.15691 
3.19278 -1.08486 2.26282 
-1.89928 -1.21527 -3.06225 
-0.107475 4.11882 -0.189703 
2.06268 -0.248736 -2.96126 
2.84108 -2.25715 1.26234 
1.68398 3.31929 -1.48338 
-2.26169 -2.06208 2.83827 
2.34732 -0.492769 -2.78535 
3.88408 -0.569527 -0.185812 
0.455673 -3.82679 0.662225 
-0.405885 -1.60019 3.98522 
4.17106 0.105181 -1.35223 
-1.69113 -0.0322042 -3.19089 
0.7299 -3.37243 1.39739 
0.497602 3.32106 -1.48051 
-1.4819 3.6743 0.90896 
3.90931 -0.528708 0.173916 
-0.195154 -4.12287 0.18316 
-0.377329 1.028 4.00287 
1.97655 2.98126 -2.03032 
-1.38863 2.84229 2.25518 
-2.708 -0.298013 -2.56243 
-1.8004 -3.15706 1.74587 
2.92819 -2.11618 0.102575 
0.959393 2.83908 -2.26037 
-2.06693 -3.41161 1.33401 
3.11921 1.80711 0.0662755 
2.48326 1.25353 -2.70133 
-1.82508 3.30802 1.50161 
0.0211369 -4.00345 -0.376377 
-2.27512 -3.17288 -1.65057 
-0.976282 -0.880192 3.63269 
-3.98068 -0.238517 1.77587 
-1.76773 -0.213457 -3.14355 
3.43277 1.29976 -0.149837 
2.53138 2.75824 0.152102 
2.53265 2.75619 -2.21567 
-2.48485 2.83354 -1.7296 
0.742225 -0.570697 -3.77735 
1.18256 -0.0495731 3.50521 
3.05963 -1.04928 -2.34511 
-1.03036 -2.04217 -3.5498 
-1.88561 3.12097 1.80426 
-2.79555 0.419884 2.50832 
1.33731 -2.5406 2.74333 
-2.52267 -2.77234 -1.49468 
-0.956924 -4.1321 0.168223 
2.15886 -3.30802 -1.50162 
1.57006 -3.77031 -0.75362 
-2.0364 3.19599 1.68288 
3.20001 -1.40666 2.25835 
3.68488 -0.89184 1.02836 
0.176751 3.07038 1.88612 
