ply
format ascii 1.0
comment VCGLIB generated
element vertex 1531
property float x
property float y
property float z
element face 0
property list uchar int vertex_indices
end_header
-0.4087732 0.09830146 -1.580486 
0.5528119 -0.9207212 1.144501 
0.8455908 0.3535078 1.418935 
-1.259212 -0.09106261 -0.9394072 
-0.9903395 -0.01634685 1.611348 
-0.6923111 0.8482485 -1.077474 
-0.8391059 0.55952 1.219408 
1.226736 0.3087031 -1.024431 
0.7064406 1.348198 -0.03708595 
0.9578406 -1.090641 0.5695524 
1.063467 1.114958 0.4396083 
-1.568234 -0.3853893 -0.1303782 
-0.6933 1.353217 -0.3324372 
-0.7057351 1.348467 -0.482175 
0.6270511 -1.354812 0.6361713 
0.9581358 0.9118386 -0.7480596 
-1.226089 0.4184759 0.973469 
0.1497475 -0.9920448 -1.239107 
-1.425018 -0.05849499 0.5053238 
-0.3627013 -1.352772 0.9025608 
0.5815776 0.8395054 -1.196951 
-0.9066095 0.6593959 1.052029 
1.151291 -0.3593205 -1.107423 
-0.1239952 1.100552 1.197661 
0.9033983 -0.9469393 0.7676964 
-0.3846694 0.8292022 1.301307 
0.02337551 -1.006893 1.233435 
0.3509722 -0.496994 1.428199 
1.367914 0.913975 -0.3361452 
1.134424 -0.8641024 0.6195079 
-0.3548633 1.482488 -0.3296228 
-0.593109 -1.12557 0.8993551 
-0.542561 -0.3467906 1.485572 
1.503558 -0.7480827 0.299703 
0.6780577 0.8982067 1.04177 
-1.609839 -0.6026164 -0.02145485 
-0.6692343 -0.3074597 -1.500595 
1.362339 0.7454861 -0.510209 
1.016493 1.038715 0.5628262 
0.1886352 -1.11052 -1.193853 
-1.426915 0.6547124 0.5003552 
-1.45346 0.635771 -0.4308598 
1.111619 1.193433 -0.001783371 
-0.9053504 1.272221 -0.04374987 
-0.3052334 0.4080735 1.462164 
-0.7448931 1.33351 -0.3540563 
0.9851849 -0.8891706 -0.7436785 
1.618006 0.6917205 7.233176e-05 
0.6427963 -0.4786279 -1.435215 
-1.138066 -0.1913484 -1.256573 
1.386637 -0.9536073 -0.2777898 
0.2039775 -1.257752 -1.137615 
0.1581306 1.466318 -0.9935853 
0.1327668 1.546892 0.9383754 
1.0929 0.828445 0.6966894 
-0.2998037 -1.358312 -0.9599186 
0.3863944 0.489991 -1.430874 
1.038125 -1.221506 0.2881759 
0.3428641 1.487072 0.5872465 
-0.5183641 0.9339516 1.165718 
0.6078164 1.013689 0.996529 
-0.1411077 1.220393 -1.151885 
1.340845 0.02285168 -0.7256904 
1.502974 0.9464366 0.1686233 
-0.6867408 1.311769 0.6195245 
-1.34697 1.055955 -0.2151085 
0.4650257 0.5851451 -1.394528 
0.0202885 1.610284 -0.2959079 
0.3525681 1.39928 0.8661856 
-0.1277561 -1.213183 1.154639 
-0.9011849 0.9350479 0.7818012 
0.1940026 -1.39978 1.024251 
-0.03182512 -1.605878 0.08729511 
-0.7465649 -1.022388 0.8490805 
0.09700799 0.1465522 1.562056 
-0.007261544 0.5198944 -1.419452 
0.6245908 -0.544222 -1.41016 
0.4677697 -0.3682579 1.477372 
-0.7715842 1.104368 -0.7420817 
1.03297 -0.4266056 1.158458 
0.905545 0.6550218 1.057467 
0.182712 -0.01476368 -1.612395 
-0.8275608 -0.532917 -1.257556 
0.5816389 0.8157565 1.220639 
0.6899912 0.8241068 -1.103936 
-0.7412946 0.1748813 -1.551235 
-0.5784869 1.152654 0.8868936 
-1.161735 0.1475669 1.194607 
-1.223849 -0.1927635 -1.03199 
-0.1039284 0.358869 1.480958 
-0.5135548 1.421874 0.5998262 
-1.385603 -0.5339336 -0.6085131 
0.6037828 -1.387409 0.311063 
-1.024126 1.226853 0.1726717 
1.587535 0.1137415 -0.07984866 
1.032996 -1.223465 0.05674869 
-0.6820354 1.06106 -0.8749386 
0.8277082 0.9666978 0.8236279 
0.3002834 -0.4570984 1.443438 
-0.1000087 0.3297965 -1.492063 
-1.551049 -0.8017379 0.1753698 
1.279447 0.7380038 0.6005828 
0.4454849 -0.4107757 -1.461132 
-0.5389218 0.9694505 1.109662 
-0.5043442 -0.4049167 -1.46337 
0.4029751 -0.5654863 1.402037 
-1.111506 -0.798978 0.70755 
-0.5991994 -0.9360704 -1.082764 
1.20511 -1.157723 0.1929852 
0.7808378 0.3918164 -1.44538 
-0.7689528 -0.7607701 -1.088311 
1.387881 1.087911 0.0628215 
-1.171036 -1.170738 0.03230518 
1.189997 0.2861019 1.120616 
-0.8930337 0.9129694 -0.812031 
-0.7124959 -0.7537497 1.151788 
0.3661384 -0.682854 1.357207 
-0.4138692 -1.45995 -0.176831 
-0.005383015 -0.842061 1.296395 
-0.6905447 -0.02674006 -1.60782 
-1.373885 0.3600301 0.6391907 
-1.414124 -1.01975 0.1841601 
-0.9434285 -0.3301531 1.344452 
0.3504129 1.484188 0.4424924 
1.150034 1.17876 0.1412526 
-1.559823 -0.3607504 0.152399 
0.6500673 -0.6788779 1.289089 
0.6556879 1.367584 -0.01687086 
-1.157266 -1.015092 -0.445675 
0.6418346 -0.04682719 -1.600148 
0.644108 1.208199 -0.7657266 
-0.008930176 -0.5878251 -1.393505 
0.1314048 -1.48363 1.002999 
0.9539719 1.135536 -0.5285262 
1.551825 -0.4305195 -0.1733368 
-1.297087 0.6256019 -0.6953455 
1.436105 -0.1960852 -0.4762968 
0.2864129 -1.508634 0.5372707 
-0.8830182 0.4369558 -1.29806 
-0.2602387 0.8159946 -1.306352 
0.6131468 -0.1966682 1.542913 
-0.728614 -0.8012046 1.088215 
0.807682 0.6909201 -1.119432 
0.1105275 -1.041694 1.220142 
0.4855755 -1.019101 1.113358 
0.9169412 0.1261659 1.569843 
0.4298363 1.221168 -0.9670293 
0.471768 -0.4915057 1.430295 
-1.160447 0.2352049 1.197978 
0.6105789 -0.669408 -1.338047 
1.606639 -0.8373389 -0.02983222 
-0.7568517 -1.328942 0.08177626 
1.418362 -0.05409762 -0.5227477 
-0.05007592 -0.5466956 -1.409215 
1.091605 0.1669217 -1.359507 
1.061989 -0.6423882 0.9136564 
0.4249226 0.1595885 -1.557077 
-0.4039423 0.1663707 1.554486 
-0.6644309 0.8763081 1.077295 
1.399221 1.083579 -0.004856706 
0.1379545 1.14698 -1.179927 
0.7978814 0.8255696 -0.994583 
-0.0681207 1.592014 -0.4196775 
-0.370917 -1.476356 0.481767 
-0.312182 -1.498791 0.361878 
-1.557915 0.8255705 0.1573937 
1.274705 0.06448859 0.8988478 
-1.331907 0.3027956 -0.7490901 
-1.041069 -0.8858505 -0.6911142 
-1.321064 1.01478 -0.2821892 
0.8056566 0.5279395 -1.284438 
0.2440865 1.156706 1.176211 
1.160443 -1.160471 0.2971198 
0.9375943 0.8859748 -0.7944649 
1.060926 0.2253201 -1.331788 
-0.616298 -0.1750512 1.55117 
-1.221784 -0.02521503 -1.037396 
-0.7523751 1.330652 -0.106257 
0.4003294 0.7314569 1.338642 
-0.5391853 -0.6417854 1.372894 
-0.5156786 -1.421062 0.347761 
-0.9457351 0.1567429 -1.515556 
-1.108061 -1.194793 -0.07309167 
-1.385928 1.01063 0.2214753 
-0.07934642 -0.6906087 1.354245 
-0.3559287 1.482081 -0.7628908 
-0.9654035 0.05773319 1.594897 
0.03501761 -0.06379391 1.593667 
-0.3008627 -1.281748 1.035424 
-0.5737708 -1.398873 0.5283276 
-0.1269888 0.08652251 1.584985 
-0.5115438 -1.422642 -0.5286972 
-1.163017 0.3616623 -1.093354 
-0.4863009 -0.2643219 1.517072 
1.544374 0.1643883 -0.1928451 
1.580001 0.6131913 0.09957257 
-0.8223447 -0.4318267 1.363863 
-0.193982 -1.543939 0.1679853 
-0.2864491 5.130732e-05 -1.618014 
-0.582169 -0.8023828 -1.233482 
0.5048866 -0.001042964 1.617636 
0.7798793 0.7081633 1.129991 
1.025051 1.220325 0.3726582 
-0.9033529 -0.423367 -1.291314 
-1.579823 0.001094282 0.1000372 
-0.8398356 0.8277642 0.9504342 
1.15844 -0.9417037 -0.5178903 
-0.846718 -1.034516 -0.7368005 
-1.430901 0.960894 0.2262385 
1.085401 0.5820915 0.9505418 
-0.3427563 0.1207088 -1.571927 
1.230265 1.148115 0.09757747 
-1.320688 0.873904 -0.423442 
-1.229788 0.278493 1.016441 
-0.3296217 -1.49213 -0.1552238 
-0.6072031 1.386103 0.607501 
0.6836157 -0.8869696 1.047449 
-0.363793 1.479077 0.3587146 
-1.354458 1.100677 0.08184433 
0.04747093 -0.2511044 1.522121 
-0.07143898 1.261232 -1.136286 
-1.61738 0.6474752 -0.001712044 
-1.004275 1.230523 0.3832361 
-1.553365 -0.8772051 0.1693049 
-0.4548458 1.444298 0.4117719 
-1.033961 -0.7428368 -0.8412359 
-0.3173518 0.8355629 1.298877 
0.7508453 0.9639884 0.9032001 
-1.158644 -0.2866745 1.172715 
-0.9374939 0.6735578 1.006982 
1.221418 0.08165461 -1.038355 
-0.7233704 0.7941763 -1.100487 
-1.052566 -0.410064 1.155403 
0.5620468 0.001562586 -1.617437 
-0.0817692 -0.8684717 -1.286307 
-0.5001101 0.5068668 1.424428 
1.390718 0.5342533 -0.5951205 
-0.700707 -1.053176 0.8641506 
0.08864722 1.584174 -0.574577 
0.06591491 1.592857 0.8936325 
-0.6834369 0.8930954 -1.041502 
-0.1918224 -0.8923476 1.277188 
0.1245693 -1.427257 -1.066208 
0.9551995 -0.3056422 -1.357192 
-0.4289437 -1.057642 -1.131448 
1.543884 0.3411126 -0.1941279 
-0.07497832 1.069839 1.209392 
-0.08083026 1.015038 1.230324 
0.1236054 1.28285 -1.128029 
-0.3167697 -1.319906 0.981358 
0.6412198 -0.5440574 1.410223 
-0.9319363 1.262066 -0.3860185 
1.462126 0.2671869 0.4081717 
0.1877081 -1.546336 0.6894202 
-0.6373066 1.374604 0.4352549 
-0.8225532 0.7505874 1.044893 
-0.9335904 -1.189388 0.4950553 
1.480372 0.6331389 0.3604046 
0.2839113 -1.416605 0.9175178 
0.5430391 0.9501407 1.124854 
-1.617202 -0.02844203 -0.002177089 
-0.404209 1.097864 1.115961 
-0.1684663 -1.553686 -0.4746826 
-1.447808 0.5086688 0.4456576 
-1.515303 -0.3474994 0.2689534 
0.9752159 0.8261794 0.8166388 
1.113507 0.2890715 -1.215456 
1.025498 0.06274427 1.529792 
1.479838 -0.1307659 -0.3618008 
0.6707944 1.361813 -0.2547942 
-0.8740846 0.7871737 -0.9567757 
-0.07055663 1.395262 1.085091 
0.3622126 1.479681 0.1563617 
0.8019027 0.9487658 -0.8673655 
-0.9216071 1.266011 0.2435822 
-0.8801163 -0.7156277 -1.02229 
-0.5209957 -1.419031 -0.1207866 
1.145293 0.1975597 1.237651 
-1.537083 -0.8256608 -0.2119335 
-0.5203872 -1.193688 -0.9039588 
0.2953632 1.505215 -0.003424227 
1.439222 -0.03845203 0.4681365 
-0.8851672 -0.982659 0.7502078 
-1.041414 1.220249 -0.1599448 
0.8251479 -0.5841466 -1.20874 
1.034498 -0.5104771 1.073059 
-0.5513882 0.7698007 1.296845 
0.3826311 0.8623662 -1.288639 
0.9878241 -1.237738 0.3924722 
-0.136395 -1.353267 1.101132 
-0.2122558 -0.351894 1.483622 
1.549351 0.09854791 -0.1798137 
1.457107 -0.2045313 -0.4213131 
0.2691216 -1.030666 -1.224355 
-0.7862379 0.1345744 -1.566631 
1.239092 0.2439937 0.992084 
-1.049212 1.217271 -0.2257134 
-0.7435032 -1.022174 -0.8523566 
0.7692862 -1.324193 0.4241028 
0.514241 -0.05630391 -1.596528 
0.3236948 -1.494394 -0.4606214 
-1.090436 -0.7655615 0.7620361 
0.1986352 -0.3555796 1.482215 
-0.5818155 0.9308769 -1.105342 
-0.1743667 1.551432 -0.1789532 
-0.6870404 -1.355608 0.2125946 
-1.188189 -0.07008681 1.125348 
-0.2892296 -0.4838349 -1.433226 
0.8768809 -0.4942455 -1.246908 
-0.879598 1.282058 0.05909318 
1.558661 -0.3121287 -0.1554419 
-1.47148 -0.3359834 0.3836841 
-1.491898 0.4828459 0.3302288 
-1.551653 -0.6184923 -0.1737882 
0.4603681 1.268406 -0.8892596 
-0.820938 0.2981826 -1.498913 
0.7404661 -0.5276171 1.349951 
-0.8296707 -0.8465037 0.9418596 
-0.6104756 0.3717453 1.47604 
-0.1521916 0.3609344 -1.480169 
0.2873928 0.001821314 1.617338 
-0.5938555 -0.5194857 1.419608 
-0.4978251 1.427882 0.5305867 
-0.7390954 0.4823766 1.396562 
-1.275545 0.1088469 -0.8966472 
-0.5287094 1.416085 0.4754156 
1.037309 1.139518 -0.4412068 
0.803423 1.311154 0.09122285 
-0.0009349121 1.617677 -0.7250057 
1.596205 0.8834089 0.05714823 
0.6001078 1.388813 0.5871296 
1.319709 0.1902049 0.7810244 
1.128792 -0.8701791 -0.6190629 
-1.463757 -0.7205762 0.4039018 
1.013193 0.1342296 -1.470611 
0.08966659 -1.583785 0.673808 
-1.340704 0.09579273 0.7260596 
-0.7099191 0.616791 1.291324 
0.1324581 -0.9271789 -1.263883 
1.025572 0.8208911 0.7715709 
-1.412936 -0.008467555 0.5369532 
-1.549903 0.6953245 -0.1783696 
-0.6593838 -1.126754 -0.8318962 
-0.05339587 -0.0612201 1.59465 
-1.071757 0.1229847 -1.423292 
-0.2896495 0.2790631 1.511441 
-0.3491562 -1.484668 -0.3588521 
-0.8181674 -1.080321 -0.7195458 
-1.430036 0.7769112 0.4110869 
0.343185 1.486949 0.3613147 
0.3556744 1.482178 -0.003832608 
-0.2307643 -1.370203 -1.017066 
-0.3595603 1.480694 -0.1946918 
0.363347 -1.418876 -0.8358114 
0.154669 -1.558956 -0.8755361 
-0.9590898 1.251694 0.02950418 
0.8676267 1.28663 -0.04509057 
-1.194476 0.3880126 -1.035545 
0.4721097 0.9919906 1.153934 
0.2773696 -0.6838603 -1.356823 
-0.1324265 -1.567452 0.0295397 
1.418371 -0.3204758 0.522724 
1.554238 -0.5199484 -0.1670195 
-0.1398739 -0.5026537 1.426037 
1.218717 -0.9993207 0.399996 
-0.5605702 -1.107508 0.9499557 
-0.825287 1.302802 -0.1763862 
-0.9563984 -0.1129197 1.548716 
1.605608 -0.9058701 -0.03253281 
-0.7431837 -1.334163 0.02573028 
1.020555 -0.8974537 -0.7000248 
1.035088 -0.5849195 0.9980267 
0.9286382 1.104574 -0.5848213 
-1.215542 0.8431256 -0.5593666 
1.482723 -0.242641 -0.3542478 
1.27862 -0.1975664 0.8885965 
-0.1296675 1.298875 1.121908 
0.2462621 -0.0008394342 -1.617713 
-0.5387501 0.1548692 1.558879 
1.149324 0.5279365 -0.9407731 
-1.006381 0.6046513 -1.007001 
1.55388 -0.6629238 0.1679583 
1.214656 -0.06322934 -1.056058 
-0.03421745 -1.044739 1.218979 
0.3916386 -0.9333305 -1.261533 
-1.565158 -0.9241478 -0.128728 
-0.8847889 -0.8437811 -0.889464 
-0.5418636 0.01043861 -1.614047 
1.328883 0.2986109 0.7570076 
-0.7602429 -0.5049908 -1.3528 
0.2129545 1.536693 -0.04310346 
-1.217606 0.09553111 1.048335 
0.7661294 0.440203 -1.411702 
-0.02710952 1.601762 -0.9891628 
-1.443608 1.01122 0.1632065 
-0.9500283 0.5473192 1.120687 
1.489086 -0.7895458 0.3375902 
-1.473659 0.9192514 -0.2251237 
0.7552611 -0.6690671 1.193706 
0.07941842 1.037958 1.221569 
-0.6697208 0.6642615 1.284052 
-0.5315163 1.290306 0.7962114 
0.4857719 -1.432486 0.4178624 
-1.076456 0.9637721 0.5778062 
0.03329957 -0.2448987 -1.524491 
0.2190999 -1.534345 0.5297508 
0.1413177 0.2349611 1.528287 
-1.284461 -0.3829762 -0.8733049 
-0.12961 0.8382108 1.297866 
-1.405524 0.6550099 0.5563577 
1.58673 -0.9668968 -0.06440689 
0.6874056 -1.321185 -0.6094437 
-1.471726 0.01700729 -0.3830386 
-0.5505078 -0.9791921 -1.088334 
-0.9323717 0.1098698 -1.575793 
1.232584 0.01600856 1.00912 
-0.1041062 1.314077 -1.116101 
-1.408786 -0.5858524 -0.5478192 
0.6505948 -0.3611473 -1.480088 
1.077384 1.079719 -0.4609315 
0.1118066 -1.575328 -0.5360775 
-1.162374 1.155383 -0.300277 
-1.40511 -0.3312157 -0.5574433 
-0.136363 0.1753407 -1.55106 
-1.392326 0.5725203 -0.5909111 
-1.17648 -0.8871799 0.5543737 
0.5760964 0.5671033 1.40142 
-0.5509517 -1.407589 -0.5720722 
1.16099 -1.012175 0.4448688 
-1.551169 -0.2930207 0.1750548 
0.9772982 -1.244739 -0.02329093 
1.296544 0.1655137 -0.8416731 
-0.543766 1.410334 0.420926 
0.3871177 1.351108 0.8798079 
0.02459984 -1.608638 0.2753231 
-0.9061235 1.271926 0.1149222 
0.5886322 0.7272652 -1.302137 
1.09979 0.272925 1.245319 
-0.4339993 -1.334586 0.849449 
-0.8772022 -1.282973 0.02758487 
1.199687 0.08813453 -1.095248 
-0.7886881 1.316782 0.4980638 
-0.5467864 0.5114069 -1.422694 
1.424344 0.5647832 -0.507088 
-0.272631 0.6485249 -1.37032 
0.1299554 1.379135 -1.091251 
-1.412292 1.078586 -0.010809 
0.6239098 -1.379722 -0.4343842 
1.513134 0.4148498 0.2746317 
0.8679038 -1.286524 0.3868656 
1.402051 0.1958933 -0.5654495 
-0.6699073 1.108041 -0.8400854 
1.492814 1.04783 -0.0544998 
0.5269006 0.8894806 -1.201653 
1.050061 -0.8311001 0.7368733 
-1.026053 -1.226117 -0.2024323 
-1.358797 0.1802728 0.6786925 
-1.186555 -0.0110655 1.129628 
-0.6445509 0.553379 -1.406662 
1.075496 0.9567035 0.5858348 
1.027081 -1.225724 0.1978644 
1.469575 0.9502677 -0.198191 
-0.3180668 1.057662 -1.214043 
0.6987833 1.351122 0.03222421 
0.9161751 -0.2746936 -1.427165 
-0.4146363 -0.1686246 -1.553625 
-0.194207 -1.480204 -0.9436227 
0.857906 0.6807663 -1.079362 
-0.6944418 1.295574 -0.6280186 
0.3647751 1.478702 0.6620725 
0.4470668 1.44727 0.191755 
-1.091786 0.3656642 1.160584 
0.8607879 1.138149 0.6190971 
-1.246556 0.7581115 -0.6133666 
-0.3166123 0.1671494 1.554189 
0.08482122 -1.097096 1.198981 
-1.551401 -0.1562178 0.1744468 
1.007067 0.4236811 -1.187286 
0.23006 1.024242 -1.226809 
-1.527707 -0.4048738 0.2364789 
0.3165199 1.497134 0.1230558 
-0.4709986 0.8265785 -1.302309 
-0.7599113 -0.4144571 -1.443666 
-0.5454634 0.6799746 -1.358307 
-1.468917 0.5020444 0.3903937 
1.36713 1.030306 0.2205978 
-1.190402 0.2888566 -1.119556 
-0.8687372 1.286206 0.2844768 
-1.319041 0.7477982 0.5511947 
-1.035561 -1.189437 0.3930357 
0.4431722 -0.2157738 -1.535616 
0.1054521 0.8752731 -1.283709 
1.139012 -1.026555 -0.4524666 
0.4122127 -1.154573 -1.051248 
1.176153 0.2989923 -1.142889 
-1.387374 0.01009613 -0.6038764 
-0.8980156 -1.275023 -0.1557928 
0.9424095 -0.3992656 -1.276359 
-0.4829794 1.00057 -1.134484 
-0.3560331 1.482041 0.01554883 
-0.6669055 0.4481797 -1.446845 
0.425131 -1.455648 0.4269812 
-1.081233 1.046161 0.4906395 
1.013639 0.599348 -1.005047 
-0.5092528 -1.423517 0.6539574 
1.507224 0.7373313 -0.2901052 
0.9651217 -0.2591806 -1.393732 
0.7551121 0.6364589 1.226463 
1.531456 -0.9903991 -0.09617926 
0.4080613 -1.382105 -0.827868 
-0.02099393 -1.610015 0.8236347 
-0.8739144 0.4853477 -1.258772 
-0.2413592 -0.1822034 1.548439 
-0.4069408 -1.313487 -0.8976061 
-0.8917365 0.5047067 1.221591 
0.5473632 0.1818877 1.548559 
-0.2959993 -1.18851 1.133525 
1.080022 0.6800947 0.8579175 
-0.6005765 0.8615541 -1.155903 
1.609181 0.3345975 -0.02317733 
0.7136841 0.04354779 -1.6014 
-0.1688136 -0.3505439 -1.484138 
1.513998 -1.039738 0.008362412 
0.3543878 1.48267 -0.06533313 
-1.388519 -0.3995851 -0.6008794 
0.8546542 0.1238785 1.570717 
0.02919186 1.606884 -0.3557929 
0.1146912 1.094977 1.19979 
-0.9387197 -1.259475 0.03680223 
-0.1983431 -1.542274 0.6211404 
-1.490607 0.7108943 -0.3336095 
-0.7446795 -1.333592 -0.03439516 
-1.259685 0.7964451 -0.5619036 
-1.537413 0.09880182 0.2110683 
-0.8180802 0.6128085 1.187145 
-0.3573635 1.481533 -0.4904298 
0.5318159 0.4745494 -1.436772 
-0.4748403 -0.03219358 -1.605737 
0.4212216 1.297143 0.8996697 
-0.5719166 0.4406602 -1.449717 
1.400503 0.04898047 -0.5695042 
1.483714 -0.3446396 0.3516538 
-1.490947 0.7516778 0.3327181 
1.322908 0.6001984 -0.6949274 
-0.8060753 0.4657567 1.346202 
1.042861 0.5385666 -1.036607 
1.529088 -0.09898627 -0.2328639 
-0.388438 0.342252 1.487305 
-0.9456017 0.8082142 0.8642181 
-0.5836376 -0.6802129 1.354184 
1.423471 0.03691667 0.5093717 
-0.3028594 -1.502352 -0.6954463 
-0.4991916 -0.1782662 -1.549942 
0.03027016 0.3556698 -1.48218 
-0.8019403 -1.191233 0.6248609 
1.255955 1.062591 0.2994876 
0.5464379 1.409313 0.1558868 
-1.589752 0.9913787 -0.03690347 
1.197984 0.8929949 -0.5270556 
1.421581 -0.8966826 0.2997701 
-0.08642212 1.504268 1.027344 
-0.7898387 1.316342 0.2212755 
0.9608091 0.07635838 -1.580867 
1.104964 -1.195975 -0.1068676 
-0.5357461 1.413397 0.09242332 
0.3047968 -1.501612 -0.5168048 
-0.201124 0.6462075 -1.371205 
0.5248183 0.6009947 1.388474 
1.090928 -0.4316127 1.095493 
-1.443365 -0.7060435 0.4572898 
-1.256043 -0.7456518 -0.6163388 
-1.352884 0.3098907 0.6941727 
1.19481 0.7972755 -0.6259487 
0.7816892 -1.2161 -0.6202454 
0.5393665 -1.412014 -0.04184926 
-0.356344 0.5086648 -1.423741 
-1.213927 -1.038583 0.3655243 
-0.696882 -0.9638838 -0.9572682 
-0.2891769 0.5817752 1.395816 
1.212682 1.062284 0.3430676 
-0.02528 -0.9174296 -1.267607 
-0.6270179 -1.378534 0.4865427 
-0.05289561 0.2836534 1.509688 
1.096185 1.158571 0.3632787 
-0.2457957 -0.1724446 -1.552166 
-0.8694487 0.4013294 -1.347256 
0.1096483 -1.576152 0.4800127 
1.482533 0.8127196 -0.3227818 
0.3787144 1.473378 0.211308 
-1.351831 1.101681 -0.0008708239 
-1.421582 0.1339514 0.514317 
-1.214106 0.3341597 -1.057498 
-1.330562 -0.80733 0.4801421 
-0.3421468 1.228306 1.047581 
0.1654852 -1.554824 0.7656792 
0.3250288 0.5285294 -1.416154 
1.248078 0.2698383 -0.9685563 
0.6677065 1.18913 0.7611978 
-0.04259253 -0.6314588 -1.376838 
-0.2776728 -0.2160163 -1.535523 
0.6061217 -0.7478223 -1.26409 
-0.2178191 1.534835 0.6557423 
-1.513941 0.05894715 0.2725203 
1.019154 -1.228752 0.3427265 
0.5519816 0.4159918 -1.459139 
0.6961727 1.148762 -0.7730994 
0.610517 0.7906502 -1.216867 
-0.06030583 0.5127903 1.422166 
0.6772484 0.7519655 1.18882 
-0.3411866 0.4535174 1.444806 
-0.5226378 1.418404 -0.6115716 
0.4014627 -1.464689 -0.3918904 
-0.6913084 1.3479 -0.5788259 
1.353022 -0.3940897 -0.6938111 
0.6790338 0.2149193 1.535942 
-1.186002 -0.9505801 -0.4814521 
1.092316 -0.8566731 -0.6690445 
0.6958702 -1.352235 0.1543148 
1.006438 -0.5641858 1.04741 
1.131166 0.345137 -1.141731 
-0.7815995 1.045574 -0.7908601 
1.164479 -0.8812631 -0.5722915 
-1.359605 -0.4609321 0.6765748 
0.1876743 -1.546349 0.0995774 
0.01643698 1.611756 0.1875462 
1.4579 -0.6543495 0.4192367 
-0.3605496 -1.480316 -0.6863083 
1.507417 -0.06916448 0.2895995 
0.9326428 -1.261796 0.1850679 
-0.07416959 1.132432 1.185483 
0.2766349 -0.1730523 -1.551934 
0.6520674 -1.183524 -0.7824422 
0.625145 0.6632414 -1.329648 
1.436385 0.7088658 -0.4727836 
-1.591294 0.6823802 -0.07000536 
1.156589 -0.7003996 -0.7610453 
-0.7068026 -0.517695 -1.393536 
1.197261 -0.02455328 -1.101597 
1.29156 0.7719809 0.5544928 
1.023973 -0.3068843 1.287177 
0.3746113 -0.2236227 -1.532618 
1.101071 0.7237266 -0.7932366 
-0.3032761 1.502193 -0.07753849 
-0.4102269 0.9564652 -1.251342 
1.454913 0.6134613 -0.4270554 
-1.616918 0.5819718 0.002921294 
0.5368344 0.4938058 1.429417 
-0.6980482 0.5180061 -1.40198 
-1.599709 -0.6974696 0.04797601 
-1.167926 0.03438556 1.178398 
-1.220257 -1.1014 -0.2963764 
-0.2874962 0.8898002 1.278161 
-0.0328362 -0.3957932 -1.466854 
-0.2088462 1.352279 -1.056909 
-0.4877031 -1.431748 -0.3303955 
1.334343 -0.05098635 -0.7427122 
-1.328242 -0.7873266 -0.5024656 
-0.3003635 1.503305 -0.3233354 
1.422106 0.2357978 -0.5129461 
-0.6871852 -0.2313303 -1.529674 
1.271251 0.3679204 -0.9078904 
-1.562955 0.7410629 0.1441984 
0.6952015 -0.6851454 1.237687 
-0.3744249 1.296072 0.9475368 
-1.497764 -0.6653481 -0.3148714 
-0.7233659 0.2269421 -1.53135 
-0.7123981 -0.7132509 1.192385 
-0.7875821 0.8728198 0.9576321 
1.173202 1.169911 -0.110486 
0.6568612 -1.367135 -0.227502 
-1.38583 -0.2868013 0.6079168 
-1.336865 1.042452 0.2387169 
1.297417 1.102022 -0.2185947 
-0.1893766 1.414329 1.014328 
0.3196675 -1.413857 -0.8845091 
0.832731 0.3641475 -1.421155 
-1.597834 0.119584 -0.05288414 
0.1237357 -0.02709519 -1.607685 
0.04035506 1.60262 0.6709692 
-0.6634236 0.6748534 -1.279757 
0.2361104 -0.598284 -1.38951 
-0.2939626 -1.054871 -1.215109 
0.7340448 1.337654 -0.4899082 
-0.9726144 0.3359224 1.309497 
-0.2858047 1.450907 0.8813228 
-0.01999807 -0.4847791 1.432865 
-1.063317 -0.1338744 -1.420842 
-0.8279755 -1.2245 0.565559 
0.09687264 -1.228348 1.148847 
1.257026 0.8709375 0.4900709 
0.909641 -0.3066477 1.401745 
-1.356192 0.8287546 0.433087 
1.433408 0.6170681 -0.4833569 
-0.6844446 -0.69203 1.24156 
-0.5119238 -1.107844 0.998266 
-0.6980961 -0.6301231 1.289815 
1.086404 1.203064 -0.2181549 
0.6971236 0.2323318 -1.529291 
-1.224616 -0.6933464 0.7000714 
0.3675691 0.6170595 1.382338 
-0.5491502 -1.408277 0.2959319 
-0.7891653 -0.89811 0.9307587 
-1.33812 -0.7082713 0.5716432 
-1.096615 -0.5162066 -1.005212 
1.249001 0.3438761 -0.9661418 
0.2992924 -1.387503 -0.9312385 
-0.186108 -1.546947 -0.4045588 
1.480682 -0.4893994 -0.3595924 
1.056244 1.214585 -0.0006815642 
-0.8969333 -1.145353 -0.575748 
-0.529188 -1.228301 -0.8605452 
1.193494 -0.5399016 0.8846387 
1.235276 -0.3775647 1.002075 
-1.445405 0.4524473 0.4519475 
0.5336628 1.414193 0.0807336 
-0.866885 -0.5733093 1.17784 
-0.397981 1.449005 0.7710482 
1.463163 0.2015075 0.4054573 
-0.7147319 -0.6453827 -1.257919 
-0.7217917 -0.9999452 0.896297 
0.1762549 -1.136267 1.184019 
0.04882967 0.8808444 1.281581 
0.9556584 -1.016862 0.6455135 
-1.490435 0.02544588 0.33406 
-0.4145254 1.047482 -1.156027 
-1.07175 0.4248161 1.121468 
-0.7466251 0.3490903 1.484693 
-0.5611941 1.403677 0.275456 
-0.653901 -0.7443609 1.219772 
-0.9191042 1.266968 -0.2910616 
0.165995 1.55463 0.714708 
0.9493894 -0.6633905 -1.005254 
-1.156131 0.7444373 0.7174658 
-1.549645 -0.08820027 0.1790453 
-0.6198147 0.2595481 -1.518896 
-1.088998 -1.202074 0.3202159 
-1.599805 0.7617185 0.04772285 
0.9710256 -0.6161834 -1.030825 
0.4318657 -0.6166265 1.382504 
0.0009752114 -1.617661 -0.6418761 
0.4567864 -1.013177 -1.14807 
1.476119 0.4254315 -0.3715385 
-0.4335818 0.2689124 -1.515319 
-0.8705754 0.6598071 -1.087651 
0.5432457 -1.154267 -0.9205215 
1.376661 0.3705139 0.631923 
0.8035569 -0.7992564 -1.015221 
0.01030016 -0.3474058 -1.485337 
-1.067191 0.2724325 -1.27841 
0.4259762 1.044732 1.147326 
-0.6242579 0.8153358 -1.17844 
0.5407714 -1.115489 -0.9617732 
-0.2796581 0.752578 -1.330575 
0.2020314 -0.4706615 1.438257 
-0.9489512 -1.121288 -0.5477952 
0.8331788 -0.9189699 0.8658853 
1.383504 -0.5796571 -0.6140068 
0.1006636 0.3895184 -1.469251 
1.314963 -0.4986975 0.7934501 
0.6236488 0.4985459 -1.427606 
-0.2962779 1.504866 -0.01607579 
-1.046258 0.7006356 0.8711399 
-1.305942 -0.4322512 -0.8170673 
1.075865 -1.142404 0.3997646 
0.2732375 -1.513667 0.6010672 
0.1710674 1.552692 -0.1028598 
-0.1418362 -0.9709532 1.247163 
-1.359079 0.02871579 -0.6779523 
1.28651 -0.7534364 -0.5780876 
0.7781622 -1.074756 -0.7651159 
-0.1102657 1.510863 -0.9969054 
1.097016 -1.045589 0.4754292 
-0.2237103 -1.331044 1.06328 
0.05803821 1.595865 -0.7560172 
1.454536 0.0193845 0.4280437 
1.483715 0.4213891 0.3516527 
-0.5119832 -1.422474 -0.01054242 
-1.142843 0.9000195 -0.5751719 
0.122103 -0.3362159 -1.489611 
-0.5613471 -1.14967 -0.907017 
0.893771 0.2978249 -1.426438 
-1.533406 0.625784 0.2215601 
0.6963981 -1.352034 -0.44763 
-0.3062453 -1.486268 -0.8255206 
-1.481101 -0.6322189 -0.3584955 
0.3924931 1.468115 0.7114835 
-0.9459534 1.106319 -0.5657617 
-0.7061422 -1.156692 -0.7551997 
-0.8642999 0.5342746 -1.21946 
-0.3230791 -0.9398484 1.259044 
-1.388054 -0.5162793 0.6020951 
-0.8309249 1.269299 0.5178103 
0.4455685 1.421224 -0.7512412 
-1.257947 0.05548683 -0.9427198 
-1.42556 -1.027347 -0.1651265 
1.352586 -0.6693369 0.596111 
0.2151392 1.535858 0.0980466 
1.50826 0.8327315 -0.277042 
0.07612079 0.4993814 -1.427287 
0.2608936 -0.174098 1.551534 
1.454986 0.07815486 -0.4268643 
-1.483757 0.1869701 -0.3515405 
-0.7400762 -0.5976464 -1.280311 
0.2305856 -0.7155107 -1.344733 
0.4107819 0.2083896 1.538436 
1.444669 -0.9301948 -0.2431702 
-0.5510354 -1.407557 -0.3202444 
-1.27473 0.7880657 0.5552382 
1.148911 0.3872241 -1.081899 
-0.9618161 -0.232895 1.423323 
1.104938 -0.2061191 -1.306977 
1.007369 -0.2597108 -1.350954 
0.6496323 -0.8141283 1.154273 
0.7017649 -0.6299042 -1.286365 
1.089086 0.5052943 -1.023654 
1.51079 -0.5050117 0.280769 
1.135899 0.9806359 -0.5014988 
0.7457147 -0.4782927 -1.394027 
-1.215221 1.153861 0.004405081 
-1.301483 -0.7583463 -0.5582043 
-0.3385431 0.02866846 -1.607084 
0.2436765 0.1543828 -1.559065 
1.251177 0.2136752 -0.9604437 
-0.8569975 -0.4072281 -1.353808 
-0.747062 -0.946817 0.924155 
1.482486 0.03042638 -0.3548683 
-1.034017 0.5264238 1.057593 
1.099694 0.3656251 1.152714 
0.8898768 1.278131 0.3192781 
0.9866982 -0.2263671 1.404969 
0.5635718 1.157325 0.8971375 
0.5026007 -1.426058 -0.2184399 
1.148312 0.1186592 -1.229748 
0.4913264 0.9459286 -1.180779 
-0.1154466 -1.556441 0.9461464 
-0.7540983 1.329994 0.369698 
-0.2974551 0.5053964 1.42499 
0.7131897 1.34562 -0.2164056 
-0.6680277 1.259987 0.6900197 
-0.5475017 -1.161613 0.9089191 
-1.035248 0.1228364 1.45995 
0.166502 1.554436 -0.7750164 
0.3282266 -0.3612575 -1.480046 
-0.7575042 1.271231 -0.5892983 
-0.5821114 0.7875714 1.248351 
-0.927275 0.7345157 -0.9562433 
-0.4347524 -1.089654 1.093628 
1.219003 -0.6622029 -0.7368283 
-0.6430752 1.341392 -0.6335664 
-0.03249681 -1.105585 -1.195738 
1.39013 -1.087051 -0.07287776 
-0.4274442 -0.2732257 1.513671 
-0.9945316 1.072497 -0.5510057 
-0.7713391 0.8701338 -0.9765611 
1.10797 -0.6865447 -0.8235196 
0.04985635 -1.598991 0.8411497 
1.615176 -0.6404458 0.007481611 
-0.1342307 -0.06657618 -1.592604 
-0.4080047 -1.310258 0.8997709 
0.8745945 -0.1684413 1.553695 
-1.349078 -0.5566035 -0.7041366 
-1.564969 -0.6688623 -0.1389252 
0.6048571 -1.386999 0.07126969 
-0.7680298 0.6361561 1.213848 
1.592726 0.03258342 -0.0662583 
-1.231487 -1.147648 0.1369946 
0.8952056 0.06254317 -1.594145 
1.582113 0.1685819 -0.09404081 
0.9844264 -0.539291 1.094316 
1.214957 0.2121457 1.05527 
-0.7368037 0.2832373 1.509847 
1.12832 0.9208479 0.568866 
-0.01187167 1.613499 -0.8392913 
-0.9475908 0.1093174 1.561126 
0.5447485 -0.1677974 1.553941 
-0.2212978 -1.533506 -0.6853625 
0.1745583 -1.551359 0.3269143 
0.1406879 -1.564296 -0.481206 
0.2918951 1.024394 -1.22675 
0.03599198 0.9625367 -1.250378 
1.425034 -0.607606 0.5052808 
-1.149902 -0.08759904 1.225586 
1.097807 0.892271 0.6279559 
0.2276873 -0.2001079 -1.5416 
0.4905818 -1.430648 0.1654598 
-0.1228437 -0.8022302 1.311609 
1.295945 -0.475777 0.8432407 
0.3697748 -0.5574505 -1.405107 
0.5695825 0.7923506 -1.256101 
0.5863442 1.39407 0.4840546 
0.08619779 0.01979521 -1.610473 
-0.5488532 1.190492 -0.8786887 
1.158077 0.440823 1.019134 
0.239423 -0.2307374 1.5299 
-1.007018 1.11345 0.4975657 
-0.4705223 -0.4863554 1.432263 
-0.6117432 -0.989552 1.016739 
-0.5071439 -0.845874 -1.265016 
0.8670534 -0.7567393 -0.9942414 
-1.324107 -1.018198 0.2757294 
1.117728 0.1055574 1.309818 
-0.284305 -0.5233772 1.418122 
-1.215154 -0.8935322 0.5093473 
-0.7610067 -0.8303235 -1.026704 
0.4818757 0.5108296 1.422914 
-0.2267332 -1.53143 -0.2312773 
-0.7157747 0.6194099 -1.282849 
1.335687 -0.9778765 -0.3044702 
0.1697565 -1.553193 0.5688143 
-1.550859 0.4982857 -0.1758668 
-0.8132715 1.018134 0.7866285 
1.206854 0.7909857 0.620194 
-1.539184 -0.7360713 0.2064317 
0.3924089 1.468147 -0.1069405 
0.296945 -1.461007 0.8600819 
-0.3944609 -1.467363 0.1912278 
-1.585387 -0.8865347 -0.08547034 
1.24252 0.8902148 -0.4852996 
0.8638384 -1.288077 0.1549596 
0.29193 1.506527 -0.06714046 
0.4352342 1.451789 -0.06963775 
1.468314 0.2417251 -0.3919714 
0.5523074 1.197971 -0.8677557 
0.6698341 -0.9356173 1.012583 
-0.81025 -0.7134581 -1.094326 
-1.047444 0.4025484 1.168042 
0.1090285 0.9454885 -1.256889 
-0.4000828 0.002345381 -1.617138 
0.5972273 -1.389913 -0.6208575 
-0.6877441 1.355339 0.4190746 
0.5856712 1.039087 -0.9932755 
0.02290959 1.609283 0.9439049 
-0.6612027 -1.365477 -0.05974531 
1.106318 -0.8088158 0.7029001 
0.2932859 1.265162 1.059586 
-0.900986 -0.3362989 1.380749 
-1.287089 -0.8365225 -0.4944231 
0.9380122 -0.1132629 1.566759 
1.357274 1.099601 -0.1381508 
0.9026359 0.6753016 -1.040097 
-1.277676 -1.084989 -0.2553698 
-0.5298909 -1.415634 0.4101903 
1.51486 0.8744304 -0.2287437 
-0.737587 0.4433847 1.437062 
0.2558921 -0.8944041 1.276402 
0.8606492 -1.289295 0.258337 
0.6153733 -0.141243 1.564084 
0.3417223 0.02684116 1.607782 
0.06311899 -0.6840571 1.356747 
-1.428575 0.6490822 -0.4960107 
1.588636 0.3233097 -0.07696419 
0.5890162 -1.206666 -0.8223522 
1.524904 0.1393898 0.243816 
1.187922 -0.3318519 1.09826 
-0.9884166 0.6412711 0.9883463 
0.780875 -0.5045501 -1.332609 
-0.9404579 -0.9687893 0.7087867 
-1.20911 -0.2481734 -1.070576 
1.313428 0.4645774 0.797469 
1.343522 1.074455 -0.2000562 
0.8760139 0.4586397 1.283381 
-0.3322145 1.342329 0.9434903 
1.039126 1.221123 -0.3298284 
1.162425 -1.171332 -0.2842769 
0.3881792 -0.8899281 1.278112 
0.9594672 0.6177169 -1.04085 
1.581651 -0.2293183 0.09525282 
-0.4727032 -1.437478 0.4296479 
-0.9616529 0.2331236 -1.423258 
-0.3871807 1.41351 -0.8173437 
0.06332684 1.593845 0.5452749 
-0.2796627 0.01074406 1.61393 
-0.6855167 0.7750785 -1.157439 
0.867744 0.9231123 0.8271776 
-0.1109829 1.575642 0.4590815 
-0.9620088 -0.4955315 -1.160494 
-0.1018772 1.57912 -0.6530824 
1.246088 1.142071 0.02437007 
1.172041 0.5678796 0.8781135 
-0.4827134 -0.169288 1.553372 
0.4914843 0.2593132 -1.518985 
1.21129 -1.155362 0.06287259 
-1.335328 -0.4712225 0.7401346 
-0.7272168 1.340262 -0.2785023 
-1.274392 0.6212588 0.7223831 
0.9146845 -1.198137 -0.5052124 
-1.261807 0.8534619 -0.5027654 
-1.495536 -0.7338616 -0.3207042 
0.8570977 0.8884073 -0.872529 
1.056989 -1.2143 -0.08161521 
-1.426429 0.3567666 -0.5016284 
0.5241055 0.3614805 -1.479961 
0.1830645 -1.54811 -0.6994524 
-1.286681 -0.3206565 0.8674924 
0.6291792 0.08882475 1.584106 
0.6598134 0.7956626 -1.162558 
0.03603345 -0.4991733 1.427367 
-0.1190096 0.9315248 1.262223 
-1.566195 -0.7289388 -0.135716 
0.04558321 -1.600623 0.7110821 
0.9468441 1.256372 0.4074309 
0.3662755 0.1660599 1.554605 
0.5658497 -0.8295739 1.22261 
1.390907 0.7623473 -0.4647796 
0.3950481 1.467139 0.4095455 
-0.7741238 1.322345 -0.3070631 
1.617011 -0.4374331 -0.002678983 
-0.7104548 -0.8619277 1.045651 
0.519126 1.419746 0.5738432 
-0.8639832 1.288022 0.2252898 
0.863411 -1.074399 0.6802238 
-1.471342 -0.5510475 0.3840451 
1.052318 -0.006248459 1.481063 
0.9296283 -1.262948 0.1278345 
0.728644 -0.06944598 1.591508 
1.364109 -0.7809463 0.472979 
-0.3049332 -1.50156 -0.6370577 
1.591068 -0.08961841 0.07059842 
1.414425 -0.4098284 -0.5330561 
-0.9194965 0.6212097 -1.077328 
0.6006724 -1.26 -0.7573615 
-0.02194025 -0.8970965 1.275374 
-1.259329 -0.9928186 -0.3658864 
0.2868021 1.508485 0.4904239 
1.347792 0.6707608 0.5994814 
-1.019512 -0.1153533 1.483168 
0.03488792 -1.604708 0.7664509 
-1.311462 0.2889069 -0.8026149 
1.120319 0.8718591 -0.6258559 
-0.3227867 1.184517 -1.11073 
-0.1761352 -0.8722581 -1.284861 
-0.1721234 1.552289 -0.7996319 
0.3015643 -0.05114656 1.598498 
0.2887676 1.368238 0.9610286 
0.693392 1.353182 0.4898282 
0.4969314 1.428223 -0.6452686 
-1.086005 -1.203217 0.2632429 
-1.561448 0.4188132 0.1481432 
-0.1041933 1.578236 0.3020667 
-1.483386 -0.2499604 -0.3525119 
0.2224062 -1.441209 0.9544188 
0.135298 -1.434926 1.04781 
-0.3251375 1.488921 0.8039759 
-1.41549 0.9269085 -0.2756357 
0.5440875 1.038973 -1.034974 
0.6697243 -0.9492306 -0.9990791 
0.3283436 -1.003808 -1.234613 
-0.6549643 0.9347373 1.028332 
-0.4531042 1.146528 -1.018402 
1.41362 -0.3810853 0.5351628 
-0.2148051 0.7288902 -1.339623 
1.543191 -0.1555347 0.1959417 
-0.2848115 -1.509246 -0.7727184 
0.5798065 0.3384593 1.488754 
-0.5137891 -1.213553 0.8906915 
-0.6101455 -0.3831939 1.471667 
0.8272818 1.093349 0.6974032 
-0.9207606 -1.02666 -0.6706133 
-0.1912308 1.54499 -0.4124181 
-0.2937242 1.268191 1.056119 
-0.7572894 -1.056604 0.8041406 
0.7695145 1.324106 0.3946505 
-0.2821049 -0.08890605 -1.584075 
-0.5571577 -0.2608946 -1.518381 
-0.111903 1.453145 1.052986 
1.236709 -0.6228173 0.758508 
0.773636 -1.322531 0.4995763 
0.3210263 0.112152 -1.575196 
-0.9885904 1.240426 -0.3836877 
0.3623834 -1.479616 0.419385 
0.2318396 1.529479 -0.4209254 
1.08095 -0.4798365 1.057248 
1.324628 0.8658481 0.4275577 
1.36289 0.7590728 0.4960717 
0.7548613 1.323137 -0.540036 
-0.9571114 1.160559 0.5003639 
1.219658 -0.04946804 1.042962 
0.3484056 -1.484955 0.3518079 
1.363168 0.1583779 0.6672471 
1.459131 0.3420815 0.4160125 
1.008336 -0.4914514 -1.118246 
-0.08499025 -0.7063729 -1.348224 
1.583555 -0.4349192 -0.09026579 
1.220989 0.2713802 1.039478 
-1.160229 0.6987779 -0.7590268 
-1.221604 -0.9788312 0.4175984 
-1.611968 -0.1224723 0.01588222 
-1.48138 0.2448657 -0.3577646 
-0.3734867 1.475375 0.7002449 
1.366334 -0.3746737 0.6589594 
-0.1652782 -0.4527559 1.445097 
0.04835134 1.599566 -0.1654752 
0.9109924 -1.270066 -0.2657599 
0.1972274 0.9815892 -1.2431 
0.9106773 0.858849 -0.8485075 
-0.6892101 0.5046169 1.424207 
-0.0888325 -0.9325741 -1.261822 
-1.507311 0.2867543 -0.2898777 
0.7351037 1.217712 0.6652182 
0.374496 -1.452226 -0.7913116 
0.2144127 -1.41746 -0.9861612 
0.2360399 1.283309 -1.098685 
-0.9842974 -1.002382 -0.6313549 
-1.299522 0.2556622 0.8338742 
-0.5157097 0.1737533 -1.551666 
-0.7091535 -1.347162 -0.1089683 
0.8244494 -0.4231969 -1.370388 
-1.404407 0.4989513 -0.5592836 
-1.538168 0.1893776 0.2090915 
-1.383784 0.2079971 0.6132743 
-0.02108332 -1.609981 -0.3055857 
-1.263974 -0.3397885 0.9269404 
0.3388347 1.488611 -0.3403606 
0.6233326 -1.275239 0.7194619 
-0.6292169 1.032219 0.9565984 
1.073785 -0.9701809 -0.5740684 
0.1735093 0.2984159 1.504049 
-0.2647273 -1.157209 1.17602 
0.1244154 1.570512 -0.8382007 
-0.497994 -1.011912 1.108128 
0.9255308 1.060944 -0.6315594 
-0.5383999 1.029403 -1.050231 
-0.8384367 0.9591637 0.8204336 
-0.5112715 1.422746 -0.04317725 
-0.2964869 1.214724 1.106823 
-0.1204807 -1.411722 1.078804 
-0.4426032 -1.147429 -1.028001 
-0.9467365 -0.7391841 0.9321133 
-1.478564 1.005469 -0.1340004 
-0.4958879 0.5595628 -1.4043 
-0.7719981 1.165198 0.6808382 
0.2701255 -1.514855 0.1703781 
0.3563155 1.481934 0.06388915 
-1.372615 0.4151711 -0.6425151 
-0.5088004 0.6319283 1.376659 
0.8149652 -1.129648 -0.6734208 
1.468076 -0.3009936 -0.3925956 
-1.334866 0.7994776 0.4836905 
1.481086 -0.6485935 -0.3585345 
-1.512041 0.002360851 0.2774942 
1.24596 0.05214226 -0.9741026 
-1.481801 -0.9509395 -0.185294 
0.03386361 -1.605099 -0.7902844 
-1.047143 -0.619522 -0.9513695 
-0.4138009 1.459976 -0.3307403 
0.8463748 0.8255035 -0.9461559 
-0.5582049 -1.247852 -0.8119774 
-0.02395457 0.5728051 1.399242 
1.344553 -0.3679714 0.7159833 
-1.550082 -0.55515 -0.1779015 
-1.393382 0.1562162 0.5881462 
1.025825 -0.7724559 -0.8197532 
-1.508105 -0.9347091 0.1752201 
1.538846 -0.8665805 -0.2073154 
-0.4736208 0.5052395 -1.42505 
0.983215 1.155144 -0.4796753 
1.28127 0.6720397 -0.6647246 
-1.387417 1.003779 -0.2268387 
0.2080158 -0.4914168 -1.43033 
-1.584403 0.4076758 0.08804625 
1.204328 -0.4427407 -0.9709655 
1.144713 1.180793 0.1972508 
0.4160569 -0.9359723 1.260524 
1.149485 -1.17897 0.2419103 
-1.608578 -0.7688432 0.02475453 
0.8171512 -0.3702007 1.430682 
0.1539945 1.077202 -1.206579 
-1.556308 0.2347259 0.161601 
0.7017832 -0.8273908 1.08886 
-0.5827999 -0.4924265 -1.429944 
-0.6646907 0.1614301 -1.556373 
0.7149217 -0.242272 1.525494 
0.3008864 0.4738284 -1.437048 
0.3535962 1.413005 -0.8514333 
-1.306891 -0.4751468 0.814584 
0.8974375 -0.7330703 0.9875263 
1.267436 -1.133917 -0.1567452 
-0.8867019 1.279344 -0.1562786 
0.07269903 1.259246 -1.137045 
0.5051417 -1.425087 0.4713842 
0.4387223 0.6952292 -1.35248 
0.6338582 1.006279 -0.9778968 
0.5787414 1.396974 0.203813 
-1.128379 0.9232161 0.5664394 
-0.2337729 1.358163 1.026098 
1.249304 0.1832639 0.9653489 
0.07419205 1.24824 1.141249 
-1.235412 -0.6263583 -0.7562639 
-0.02936503 0.2209632 1.533634 
-0.1642131 1.55531 0.6271459 
0.3543584 -1.482681 -0.5706266 
-1.369992 0.1184649 0.6493811 
-0.01356852 0.9903018 -1.239772 
-0.3241914 1.388713 0.9051297 
-0.551538 0.7269447 1.339551 
-1.273699 0.3396274 -0.901481 
-0.717825 -1.262535 -0.6376741 
0.1782169 -0.2191464 1.534328 
1.470733 -0.9776061 0.1696953 
0.8847245 0.9160417 -0.8172678 
0.3787338 -0.1694937 -1.553293 
0.08292556 -1.586359 -0.8284513 
0.4985418 -1.354717 -0.7647756 
1.157612 0.3538207 1.106601 
-0.1026433 -0.4931469 -1.429669 
-0.4677667 -1.439363 -0.478515 
0.372285 -1.475834 -0.499614 
-0.5046704 1.106498 -1.006865 
0.7601089 0.9040644 0.9538608 
1.195933 -0.8125981 -0.6095029 
0.3490586 -0.8513547 1.292845 
-0.1513169 -1.560236 0.1084996 
-0.1153902 0.7554989 1.329459 
-0.9738402 -0.56035 -1.083844 
-1.026471 -1.183879 -0.4076841 
-0.8464249 -1.294729 -0.04803532 
0.5411292 1.411341 -0.4302153 
0.7562159 1.329185 0.03637171 
-0.08381087 -0.2745244 1.513175 
0.7206053 -0.05178063 -1.598256 
0.08605014 -1.485334 1.04665 
-1.566827 0.6830181 0.1340624 
-1.324226 -0.1802841 0.7692001 
1.017347 -1.017052 -0.5836346 
0.940735 0.6877806 -0.9895185 
-1.220266 0.1640034 1.041371 
0.9290527 1.231242 0.4577391 
1.055546 0.2805074 1.28198 
-1.357611 0.8293699 -0.4310533 
0.8152238 0.9897866 -0.8130236 
-0.5200568 -1.41939 0.06560302 
-0.3770274 0.2721298 -1.51409 
-0.2344137 1.288311 -1.095309 
-1.215271 0.6321536 0.7706089 
0.6947385 -0.2947102 -1.505465 
-1.510934 -0.8046019 -0.2803918 
-0.06717482 0.4981881 -1.427743 
-0.1315438 -1.567789 -0.6938221 
-0.7241468 -0.2742083 -1.513296 
-0.3415544 -1.487572 -0.2903316 
-1.479426 0.7018164 0.3628803 
0.08412182 -0.9682458 1.248197 
0.2415906 1.525755 0.7063335 
0.5485193 -0.3619094 -1.479797 
1.118188 -1.082787 0.4170584 
-0.1906275 0.9908036 -1.239581 
-0.4956206 -0.8326516 1.289762 
0.1047872 -1.309929 1.117686 
1.02213 -0.7444784 0.8514262 
0.2666008 -0.5135347 -1.421881 
-1.114263 -0.03563093 1.318889 
0.3903565 1.218187 1.009491 
1.498977 -0.2983087 0.3116963 
-0.8270911 -1.007612 0.7833312 
-0.2713196 -1.192664 -1.154051 
0.4420972 0.02228351 1.609522 
-0.2906487 -1.027608 1.225523 
-1.297214 0.3369998 0.8399181 
-0.4139713 0.8441575 -1.295594 
1.285588 1.124636 0.2078106 
-0.1175459 1.573135 -0.5956169 
0.1648384 -0.6254127 1.379148 
0.1309318 -1.568022 0.4057158 
0.2418648 -0.7146231 1.345072 
-0.1578047 0.4987761 -1.427518 
-1.518586 0.9046305 -0.1948174 
-1.223804 -0.2975613 -1.032108 
1.470063 -0.8854766 0.2624944 
-0.6216806 -0.03766315 1.603648 
-0.608816 0.9829281 1.02629 
-0.8309275 -0.9005344 -0.8865721 
0.3166208 -1.352042 0.9493707 
-1.346474 -0.41757 0.7109523 
0.6045827 -0.4679778 1.439282 
0.9195489 -1.108866 -0.5896193 
-1.165603 -0.6212811 -0.8311494 
-1.370452 -1.094319 -0.1532636 
-1.483155 0.1365481 0.3531168 
-0.1883676 0.8412287 -1.296713 
-1.588842 -0.3661873 -0.07642536 
-1.348465 0.5992469 -0.6703222 
0.9921792 1.239055 -0.3605651 
-1.42319 -0.4029098 0.5101086 
0.8938128 -0.7857448 0.9384764 
-1.214828 0.2407534 1.055608 
0.5240523 -1.417864 -0.2981612 
0.8183517 0.9229324 0.8767498 
-1.414328 -0.9526808 -0.2510251 
-0.2244939 0.3266667 -1.493258 
-1.456331 0.05662233 -0.4233438 
-0.6279731 -0.3279963 1.492751 
1.12127 0.0554878 -1.300545 
0.3630791 -1.119035 1.135919 
0.2454446 1.349911 -1.022678 
-1.475046 -0.4215316 -0.3743485 
0.8259565 -1.302547 -0.08004653 
1.459415 -0.1388518 -0.415269 
1.119607 -0.291681 -1.206746 
-0.8984873 -0.6080521 -1.111495 
0.1432187 -0.4596737 1.442454 
-1.152478 1.177827 -0.1605227 
1.238394 -0.03730457 -0.9939116 
-0.5060519 0.2866066 -1.50856 
-0.983987 1.242184 0.2448928 
0.8752004 -0.683754 1.05908 
0.0965519 0.4301903 1.453716 
1.186735 0.9864322 0.4448666 
0.5701914 -1.40024 0.1151037 
-0.2182928 1.037335 -1.221807 
0.2614834 0.05214619 1.598116 
-1.061647 0.4882878 -1.068099 
0.1255291 1.570086 -0.1471514 
-0.9715065 -0.7544869 -0.8920407 
1.412261 0.4919219 -0.5387194 
-0.7159321 -0.7839389 -1.118163 
1.017256 1.229477 0.2858436 
-1.203768 0.4698448 -0.9444208 
-1.486743 -0.5726313 -0.3437237 
-0.5593183 -0.4088604 1.461863 
0.7097457 -1.346935 0.3935949 
-0.4034897 1.366675 -0.847869 
0.6937076 0.5372677 1.387059 
-1.340048 0.9546489 0.3233372 
0.6785055 -0.6148326 1.324696 
0.5675904 1.356543 -0.6939006 
0.5068394 1.424439 0.4889375 
1.386545 0.9461911 -0.285298 
1.543839 0.2653345 -0.1942449 
0.6522 0.2728032 -1.513833 
0.8402808 0.3088257 -1.468927 
-0.8148861 -1.306775 0.3475271 
1.392602 -0.3865849 0.5901892 
-0.3877858 -1.213949 1.016299 
1.414626 -0.1105544 -0.5325289 
-1.264168 -0.6463122 0.7075539 
-1.009702 -0.7898805 -0.8184519 
1.187172 -0.8627557 0.5681067 
-0.5050215 -1.287516 -0.8254964 
-1.253227 0.02219133 0.9550763 
1.133444 -0.5474715 -0.9371185 
0.9591932 0.2318316 -1.427009 
0.4262955 -1.2695 0.9222386 
-0.1728794 1.21665 1.153315 
1.479869 -0.07341659 -0.3617203 
-0.496907 -1.162189 -0.9589383 
-0.9593448 0.2977897 1.360899 
0.01517111 1.040729 -1.220511 
-0.6934522 1.353159 0.3237163 
-1.374625 0.5422149 -0.6372539 
-1.387264 -0.5952179 -0.6041635 
0.1152369 -0.7638162 1.326282 
-0.5701014 -1.287583 0.7603493 
-1.409823 -0.1333259 0.545103 
0.2149792 1.086733 -1.202939 
0.5058825 -0.7164821 -1.344362 
0.9271966 0.01489632 1.612344 
-0.87521 -0.9108368 0.8319871 
-0.966398 -0.8807801 0.7708559 
-0.05945497 -1.595324 0.360165 
1.133173 1.173709 0.3111513 
-1.115232 0.7431119 -0.7596905 
-0.2115333 -1.23772 -1.145267 
-1.053135 0.587168 -0.9777315 
-0.1141867 -1.369482 -1.094938 
-1.588103 0.8444071 0.07836056 
0.2595933 0.8893333 -1.278339 
-1.297865 1.09562 -0.2245488 
0.734338 0.5981633 1.285533 
-1.502424 0.1430483 -0.302672 
-0.6310059 -1.161853 0.8251748 
-0.9765922 -0.06561282 1.575829 
-0.08396289 -1.585963 -0.05141544 
-1.433203 0.01378036 0.4838925 
-1.147094 -1.154162 0.3167779 
0.3988743 1.465677 0.3447413 
-0.9924658 -0.315585 1.309983 
1.387837 0.6296088 0.6005885 
-1.600162 -0.9855742 0.03229778 
0.04311526 0.5567911 1.405359 
-0.3316116 -1.438711 -0.847711 
-1.543251 0.681753 0.1957846 
-0.7640399 -1.326197 0.1778401 
-0.7900146 0.7274512 1.100568 
1.403464 0.8687633 -0.3458065 
-0.4080657 1.194404 -1.015564 
0.02155569 -0.1530671 -1.559568 
-0.521648 -0.7665437 -1.32524 
-1.069693 0.2367574 1.311583 
1.536575 -0.3926854 -0.2132622 
-0.3433139 -0.03717794 -1.603833 
1.259159 -0.3357569 0.9395467 
0.4786265 0.570828 1.399997 
-1.139076 -0.8924977 -0.5864599 
1.560795 -1.021863 -0.02047718 
0.1697218 -0.5858375 -1.394264 
-1.190816 0.8844291 0.5427894 
0.09845994 1.517072 1.002502 
-1.292695 -0.7608737 0.5644655 
1.263623 -0.6778031 -0.6766081 
0.1820567 -1.400026 -1.035952 
0.7467352 -1.332807 0.1777148 
1.031516 -1.191447 0.3950708 
-0.5815772 1.395891 0.469998 
-1.324439 -0.1034224 0.7686416 
1.580029 -0.8469062 -0.09949787 
-0.1099532 1.246677 1.141846 
0.5484152 -0.2552047 1.520555 
1.331477 0.2862105 -0.7502157 
-1.015401 -0.8673065 0.7353265 
-0.5511664 1.321099 0.745769 
0.5070157 -0.1088491 -1.576457 
0.3839987 -1.309726 0.9243098 
0.1177965 0.8433983 1.295885 
1.331739 0.3740806 0.7495309 
0.9358909 1.260556 -0.3404741 
-0.2548731 1.520681 0.04215103 
0.2391651 1.068583 1.209872 
-0.1674249 -1.536992 -0.9136173 
-0.07641451 -0.7593811 -1.327976 
-1.20047 0.09474717 -1.093195 
-0.9417352 0.2834975 -1.392801 
0.02566975 -1.238607 -1.144928 
-1.11723 -0.1150602 1.311123 
0.04945976 -0.6210957 1.380796 
0.8805457 -0.884761 0.8527274 
-0.270489 -0.04617702 1.600396 
1.419793 0.6204125 0.519001 
0.4966558 1.055812 1.065567 
-0.5854331 -1.180034 0.8525673 
1.590979 -0.7003622 -0.07083096 
1.15353 -0.2275072 1.216088 
-0.8186655 -0.5872829 1.212086 
-1.069489 0.804296 -0.7442495 
0.5786467 -0.1131578 -1.574811 
-0.5739717 1.398796 0.3563554 
-1.149801 0.3407313 1.127502 
-0.5302228 0.7335514 -1.337842 
-0.1738843 1.551616 -0.09940642 
0.08427823 1.585843 -0.8926659 
-1.013801 -0.2224847 -1.381748 
1.284859 0.4299436 0.872263 
0.6482105 0.5753553 1.394468 
1.488592 -0.2367313 0.3388839 
0.7668505 1.325123 0.5046902 
-0.006240666 -0.2937409 -1.505835 
-1.161415 -1.174413 -0.1653508 
-1.484657 0.436462 -0.3491867 
-1.059756 -0.2312629 -1.327015 
-0.9484068 -1.255775 -0.3028482 
-0.3858342 -0.3515646 1.483748 
-1.578455 0.7814858 0.1036191 
0.8011459 1.312023 0.1662294 
1.460127 0.9457119 0.2121952 
-0.03643876 -0.6237097 1.379798 
-0.325408 -1.493739 -0.00355649 
1.071383 -0.08500534 -1.431151 
0.2321727 0.2882147 1.507946 
-1.16316 0.5466259 -0.908248 
0.9651985 -1.15716 0.4956756 
-0.3414199 0.2305278 1.52998 
-0.1694945 -1.553293 -0.1157382 
0.4309821 -1.453413 0.518569 
-1.251357 -0.3204484 -0.9599726 
0.5270882 0.95534 -1.135606 
1.439127 1.068336 -0.05682774 
-0.1523469 1.559843 0.2681839 
-1.580381 -0.3474731 0.09857632 
1.120072 0.6655563 -0.832406 
1.207026 1.156991 0.1850461 
1.005437 0.5280385 1.084558 
1.066321 0.09650081 -1.444404 
-0.6413728 1.373051 0.4968506 
-1.031945 0.07925687 1.506832 
-0.8939625 0.5660915 1.15798 
-0.02645742 -1.607928 -0.9026725 
0.7052301 0.4445882 1.448216 
-0.1866488 1.546741 0.2235576 
-0.7435372 -1.068413 -0.806084 
-1.55769 0.8853356 -0.1579819 
0.4983505 -0.6074377 1.386013 
1.055809 0.05239721 1.471924 
-0.6141276 -0.1164612 1.57355 
-0.1920598 -1.407483 1.018491 
0.391739 1.468403 0.4832976 
1.053459 0.8876635 0.6769114 
-0.5928567 -1.391583 0.5817095 
-0.342524 -1.159666 1.115844 
0.8948787 -0.1717798 -1.551376 
1.528143 -0.8464239 0.2353379 
-1.370199 0.171688 -0.64884 
-1.056795 -0.45513 1.106109 
0.8934926 0.5672396 -1.157302 
-0.5234208 -0.605781 -1.386646 
-0.02373606 0.1678931 -1.553905 
-0.08997357 -1.583667 -0.1170403 
-0.1740291 1.551561 -0.3114481 
0.4432271 -0.08603873 -1.58517 
-0.8096275 -1.308784 0.06960616 
-1.057854 -0.2766902 -1.28349 
-0.569306 -0.5790722 1.396848 
-0.4733509 0.3725278 1.475741 
0.8389308 -0.7583379 1.020765 
0.03009467 0.9012576 -1.273784 
1.417368 -0.1824178 0.5253491 
0.9272685 0.432449 1.258317 
0.8887386 -0.4311521 -1.298143 
-0.5928417 -1.391589 0.3310498 
1.472784 -0.3730332 -0.3802704 
0.7422111 0.2601987 1.518647 
-1.256107 -0.950507 -0.4114197 
1.228947 -0.8146532 0.5744339 
-0.06147368 1.594553 -0.2874498 
1.501784 0.6580554 0.3043468 
-1.597827 -0.5138029 -0.05290161 
-0.3611056 -1.480104 0.08814704 
0.5266643 -1.416866 0.08306688 
1.407301 -0.6591386 -0.5515941 
0.5713871 -0.759743 1.286904 
0.9792986 0.4226575 1.216078 
-0.9523699 -0.1890704 1.476594 
1.34125 0.176208 0.7246293 
0.2893599 -0.8100093 1.308638 
-0.2407448 -1.026407 -1.225981 
-0.0423705 0.3671833 1.477782 
1.542871 0.5535284 -0.19678 
-0.1614746 0.4365729 -1.451278 
-0.8642343 1.287926 -0.3950253 
-1.134778 -0.4943275 0.9889281 
0.1108306 -1.215155 -1.153886 
1.44449 0.6106334 0.4543445 
0.6917273 1.198757 -0.7275497 
